0.539226025210862,-2.40686298051079,14.0724836802435,-0.2019,0.072,0.9767
-2.43094957899718,-0.417418564023497,16.5504836802435,-0.2019,0.072,0.9767
0.789224295066967,-2.03735782973966,14.1196478716895,-0.6843,0.0297,0.7286
-2.07449366356945,-0.685695234149734,16.5976478716895,-0.6843,0.0297,0.7286
1.25098316693045,-2.22103001638516,14.1668120631355,-0.7119,0.6797,-0.1766
-2.28117091501721,-1.13762580583722,16.6448120631355,-0.7119,0.6797,-0.1766
1.50558592484536,-2.38798332071641,14.2139762545814,-0.751,-0.4501,-0.4831
-2.46072543686852,-1.38350411689321,16.6919762545814,-0.751,-0.4501,-0.4831
1.07656503898162,-2.57763802626521,14.2611404460274,-0.7897,0.5724,-0.2208
-2.62854956544752,-0.945482553827178,16.7391404460274,-0.7897,0.5724,-0.2208
0.821962314616387,-2.41068405611202,14.3083046374734,-0.9273,0.3521,0.1266
-2.44899438030628,-0.699604309785523,16.7863046374734,-0.9273,0.3521,0.1266
1.29081052457059,-2.52862906192906,14.3554688289193,-0.9716,-0.128,0.1992
-2.59038450012385,-1.1619229254527,16.8334688289193,-0.9716,-0.128,0.1992
1.22526348537723,-3.02518595008129,14.4026330203653,-0.4551,0.8707,0.1864
-3.08301358722586,-1.07146995391786,16.8806330203653,-0.4551,0.8707,0.1864
0.722941741160063,-2.96184893089677,14.4497972118113,-0.8909,-0.0055,0.4542
-2.99447772182543,-0.572972097101652,16.9277972118113,-0.8909,-0.0055,0.4542
0.788488763578588,-2.46529237565551,14.4969614032572,-0.8644,0.3967,0.3089
-2.50184896636838,-0.663425035129328,16.9749614032572,-0.8644,0.3967,0.3089
1.257135319529,-2.71014169808199,14.5441255947032,-0.0003,0.9881,-0.1539
-2.76997245657176,-1.11915585381295,17.0221255947032,-0.0003,0.9881,-0.1539
1.07697584779981,-2.77773357067144,14.5912897861492,-0.8472,0.3922,0.3584
-2.8284122462919,-0.935823130407242,17.0692897861492,-0.8472,0.3922,0.3584
0.614458906425109,-2.64497975225451,14.6384539775951,0.1139,0.9899,0.0848
-2.6725506958795,-0.480573007435342,17.1164539775951,0.1139,0.9899,0.0848
0.794618361379458,-2.57738821257603,14.6856181690411,-0.6628,0.6803,0.3129
-2.61411123780432,-0.663905697333883,17.1636181690411,-0.6628,0.6803,0.3129
1.22596412660817,-2.71421585179141,14.7327823604871,-0.884,0.4363,0.1678
-2.77247277275619,-1.08781912750765,17.2107823604871,-0.884,0.4363,0.1678
1.4921438525608,-3.06324146186148,14.779946551933,-0.2383,0.9712,-0.0071
-3.13445150526685,-1.33609703672024,17.257946551933,-0.2383,0.9712,-0.0071
1.06249584709732,-3.25350537984072,14.827110743379,-0.9425,-0.0136,0.334
-3.30285251486341,-0.897418490344404,17.305110743379,-0.9425,-0.0136,0.334
0.796315805008563,-2.90447942008484,14.874274934825,-0.6323,0.7222,0.2804
-2.94087341720061,-0.64914028299402,17.352274934825,-0.6323,0.7222,0.2804
1.40211692628447,-1.29078905899278,14.921439126271,-0.7562,0.6278,0.1847
-1.35971438202768,-1.33538199369917,17.3994391262709,-0.7562,0.6278,0.1847
1.45747609567382,-1.75441943985077,14.9686033177169,-0.9541,-0.1583,0.2541
-1.82554322899617,-1.36733904334409,17.4466033177169,-0.9541,-0.1583,0.2541
1.02089126930534,-1.89725183273495,15.0157675091629,-0.4953,0.8383,0.228
-1.94622372093045,-0.924119434189986,17.4937675091629,-0.4953,0.8383,0.228
0.965532099915989,-1.43362145187697,15.0629317006089,-0.908,0.1264,0.3993
-1.48039487396196,-0.892162384545067,17.5409317006089,-0.908,0.1264,0.3993
1.42166267526664,-1.24460250058796,14.035004,-0.4153,0.721,0.5548
-1.31456997613126,-1.35722729289179,16.513004,-0.4153,0.721,0.5548
1.43281740757775,-1.11462082642981,14.082168191446,-0.1508,0.9885,-0.01
-1.18531435583892,-1.37490915627581,16.560168191446,-0.1508,0.9885,-0.01
1.11830610691882,-1.49671667683161,14.1293323828919,-0.5625,0.0901,0.8219
-1.55109843031518,-1.04156757771714,16.6073323828919,-0.5625,0.0901,0.8219
1.10715139138255,-1.62669801807879,14.1764965743379,-0.1555,0.9132,0.3766
-1.68035371896256,-1.02388574784029,16.6544965743379,-0.1555,0.9132,0.3766
1.45700421957644,-1.28441549304742,14.2236607657839,-0.6599,0.5678,0.4921
-1.35611106845573,-1.39052048696005,16.7016607657839,-0.6599,0.5678,0.4921
1.88024548537973,-1.45945970073857,14.2708249572298,-0.9073,0.0708,0.4144
-1.55223289336259,-1.8044164564019,16.7488249572298,-0.9073,0.0708,0.4144
1.6441718270999,-1.89404973537177,14.3179891486758,-0.3185,0.9135,0.2532
-1.97439197417263,-1.54677138886572,16.7959891486758,-0.3185,0.9135,0.2532
1.22093091098241,-1.71900521154448,14.3651533401218,-0.3783,-0.0176,0.9255
-1.77826985112799,-1.132875784576,16.8431533401218,-0.3783,-0.0176,0.9255
1.50219732406367,-1.3728712281603,14.4123175315677,-0.1229,0.576,0.8082
-1.44672904413705,-1.43120483592836,16.8903175315677,-0.1229,0.576,0.8082
1.349546930416,-1.64029501844308,14.4594817230137,-0.09,0.757,0.6472
-1.70613192934873,-1.26528988954359,16.9374817230137,-0.09,0.757,0.6472
1.14254496404329,-1.98536230601232,14.5066459144597,-0.0301,-0.0628,0.9976
-2.04034471455701,-1.04118486676214,16.9846459144597,-0.0301,-0.0628,0.9976
1.29519534091613,-1.71793884864051,14.5538101059056,0.0186,0.8665,0.4988
-1.7809421609903,-1.20709977963974,17.0318101059056,0.0186,0.8665,0.4988
1.4682080618041,-1.35809768232304,14.6009742973516,0.8223,0.5367,0.1892
-1.43026372436243,-1.39800211239135,17.0789742973516,0.8223,0.5367,0.1892
1.47524068857362,-1.04812850639967,14.6481384887976,0.8526,0.3364,0.3999
-1.12104121812583,-1.42062487744434,17.1261384887976,0.8526,0.3364,0.3999
1.41156061544826,-1.44517259124203,14.6953026802435,0.5181,0.7955,0.3141
-1.51437754689399,-1.33704444018336,17.1733026802435,0.5181,0.7955,0.3141
1.40452798867875,-1.7551417671654,14.7424668716895,0.8451,-0.442,0.3007
-1.82360005313059,-1.31442167513037,17.2204668716895,0.8451,-0.442,0.3007
1.67474911663229,-1.4570020811462,14.7896310631355,0.787,0.5895,0.1819
-1.53943688218538,-1.59930414677521,17.2676310631355,0.787,0.5895,0.1819
1.74329392232126,-1.81443646382714,14.8367952545814,0.8295,0.4606,0.3158
-1.89986785072115,-1.649774387807,17.3147952545814,0.8295,0.4606,0.3158
1.30932571262788,-2.0354686221412,14.8839594460274,0.9055,-0.1522,0.3962
-2.09878070259833,-1.20523271440446,17.3619594460274,0.9055,-0.1522,0.3962
1.24078090693892,-1.67803423946025,14.9311236374734,-0.8908,0.4152,-0.1848
-1.73834973406256,-1.15476247337266,17.4091236374734,-0.8908,0.4152,-0.1848
1.71774484468304,-1.59952540905137,14.9782878289193,0.2394,0.9668,-0.0898
-1.68394336071585,-1.63507297804627,17.4562878289193,0.2394,0.9668,-0.0898
1.63109783158002,-1.41543801958046,15.0254520203653,0.0731,0.9969,0.0279
-1.49572875580874,-1.55779986278909,17.5034520203653,0.0731,0.9969,0.0279
1.13203510415977,-1.43622393276918,15.0726162118113,-0.2233,0.9727,0.0629
-1.49137324063678,-1.05832344735508,17.5506162118113,-0.2233,0.9727,0.0629
1.21868245017377,-1.62031133901493,15.1197804032572,0.8619,0.5018,0.0734
-1.67958787905106,-1.13559689425722,17.5977804032572,0.8619,0.5018,0.0734
1.68712757910073,-1.65644539885612,15.1669445947032,-0.0523,0.9942,-0.0941
-1.73925042915227,-1.60163003600942,17.6449445947032,-0.0523,0.9942,-0.0941
1.86566912819,-2.0086927421659,15.2141087861492,0.5233,0.8283,-0.2
-2.10003646374665,-1.76221868088092,17.6921087861492,0.5233,0.8283,-0.2
1.41155864842222,-2.03811680075693,15.2612729775951,0.7244,0.6848,-0.0792
-2.10657034891472,-1.30720284444938,17.7392729775951,0.7244,0.6848,-0.0792
1.23301676642198,-1.6858694406723,15.3084371690411,-0.0086,0.9961,0.0877
-1.74578428081318,-1.14661386793291,17.7864371690411,-0.0086,0.9961,0.0877
1.61860424035672,-1.86343226408281,15.3556013604871,0.6479,0.1669,-0.7432
-1.94252662124379,-1.52277700780014,17.8336013604871,0.6479,0.1669,-0.7432
1.27720154711233,-1.97971968391178,15.402765551933,0.4774,0.7051,-0.5244
-2.04148576967754,-1.17595479123051,17.880765551933,0.4774,0.7051,-0.5244
0.919906425520083,-1.73471120034655,15.449929743379,0.6707,0.6042,-0.4301
-1.7788070272035,-0.831442325295223,17.927929743379,0.6707,0.6042,-0.4301
1.26130910198963,-1.61842411342855,15.497093934825,0.7645,-0.3457,-0.5441
-1.67984821041472,-1.17826450835768,17.975093934825,0.7645,-0.3457,-0.5441
1.65316638479664,-1.85569545081818,15.544258126271,0.346,0.8228,-0.4508
-1.93653893439028,-1.55768471058795,18.0222581262709,0.346,0.8228,-0.4508
1.84132640382024,-1.81910748638186,15.5914223177169,0.5702,0.0454,-0.8203
-1.9094663920335,-1.7474475872285,18.0694223177169,0.5702,0.0454,-0.8203
1.37444481702262,-1.7426373352712,15.6385865091629,0.6364,0.1694,-0.7525
-1.80959754427186,-1.28500590079839,18.1165865091629,0.6364,0.1694,-0.7525
1.18628481477386,-1.77922496679655,15.6857507006089,0.4888,0.7398,-0.4624
-1.83666975498368,-1.09524305766501,18.1637507006089,0.4888,0.7398,-0.4624
1.56526290781239,-1.40975170378827,15.7329148920548,0.7796,0.3789,0.4986
-1.48673653427288,-1.4923345183187,18.2109148920548,0.7796,0.3789,0.4986
1.84223309737707,-1.53204638555214,15.7800790835008,0.1173,0.9903,-0.0752
-1.62281464986488,-1.76279934329997,18.2580790835008,0.1173,0.9903,-0.0752
1.61670346534515,-1.98542117836658,15.8272432749468,0.4329,0.8259,0.3612
-2.06426531007343,-1.51473960798317,18.3052432749468,0.4329,0.8259,0.3612
1.33973360869144,-1.86312651337755,15.8744074663927,0.6391,0.2245,0.7356
-1.92818722798859,-1.24427511464686,18.3524074663927,0.6391,0.2245,0.7356
1.81488982113219,-1.59134081256192,14.4309,0.1976,0.9606,0.1954
-1.68065790883485,-1.73250674978348,16.9089,0.1976,0.9606,0.1954
2.03890876562498,-2.00618643428858,14.478064191446,0.828,0.0402,0.5592
-2.10625153271689,-1.93536493834978,16.956064191446,0.828,0.0402,0.5592
1.60097234143981,-2.2585125461058,14.5252283828919,0.7234,0.5363,0.4348
-2.33621898763543,-1.48528522539754,17.0032283828919,0.7234,0.5363,0.4348
1.37695372985799,-1.84366694115397,14.5723925743379,0.5763,0.7302,0.3672
-1.91062539726057,-1.28242736847619,17.0503925743379,0.5763,0.7302,0.3672
1.67630748090238,-1.55460083729903,14.6195567657839,0.9013,-0.1879,0.3904
-1.63699039671175,-1.595948926167,17.0975567657839,0.9013,-0.1879,0.3904
2.16061353347806,-1.40630206574832,14.6667209572298,0.5464,0.8192,0.1744
-1.51325200013652,-2.08710438772462,17.1447209572298,0.5464,0.8192,0.1744
2.30863620560248,-1.8907223685179,14.7138851486758,0.008,0.9949,-0.1002
-2.00450767255337,-2.21056128512811,17.1918851486758,0.008,0.9949,-0.1002
1.82432982011582,-2.03902112329377,14.7610493401218,0.2598,0.9625,-0.0779
-2.12824603562143,-1.71940549192553,17.2390493401218,0.2598,0.9625,-0.0779
2.11896274866125,-1.70634819293144,14.8082135315677,-0.3745,0.8224,0.4283
-1.81082188884445,-2.03040670128333,17.2862135315677,-0.3745,0.8224,0.4283
2.43349169638784,-2.07990870864105,14.8553777230137,0.5751,0.5897,-0.567
-2.19973759052851,-2.32573786259012,17.3333777230137,0.5751,0.5897,-0.567
2.04699465239696,-2.40746914377848,14.9025419144597,0.0696,0.9843,-0.162
-2.50743270274963,-1.92324622094232,17.3805419144597,0.0696,0.9843,-0.162
1.73246603758134,-2.03390864484371,14.9497061059056,0.327,0.929,-0.1733
-2.11851703457274,-1.62791539128049,17.4277061059056,0.327,0.929,-0.1733
2.13238163384602,-1.66819815265102,14.9968702973516,0.7115,0.358,-0.6047
-1.7733954866869,-2.0457284660166,17.4748702973516,0.7115,0.358,-0.6047
2.36939320429309,-1.69595948809148,15.0440344887976,0.0016,0.9967,-0.0816
-1.81304913916458,-2.28104264773203,17.5220344887976,0.0016,0.9967,-0.0816
2.27275809693303,-2.19290737964882,15.0911986802435,0.2922,0.4107,-0.8637
-2.30450424221063,-2.15952132208184,17.5691986802435,0.2922,0.4107,-0.8637
2.03574689294661,-2.16514539516126,15.1383628716895,0.3198,0.6335,-0.7046
-2.26484995995019,-1.92420753902571,17.6163628716895,0.3198,0.6335,-0.7046
2.18072202758561,-1.70043937855809,15.1855270631355,0.2206,0.9495,-0.2233
-1.80802856732716,-2.09238508441372,17.6635270631355,0.2206,0.9495,-0.2233
2.67881888848636,-1.61233656261597,15.2326912545814,0.9555,-0.2061,-0.211
-1.74510386896616,-2.59428454780483,17.7106912545814,0.9555,-0.2061,-0.211
2.76941042200107,-2.10847485202495,15.2798554460274,0.4666,0.8546,-0.2281
-2.2451724860456,-2.65979337449614,17.7578554460274,0.4666,0.8546,-0.2281
2.27131354432548,-2.19657800087805,15.3270196374734,0.9242,0.364,-0.1153
-2.30809751605157,-2.15789387759786,17.8050196374734,0.9242,0.364,-0.1153
2.54958114661328,-1.83726974424625,15.3741838289193,0.9158,-0.2017,0.3472
-1.96324821498195,-2.45389090683729,17.8521838289193,0.9158,-0.2017,0.3472
2.73386599312371,-2.22705968575031,15.4213480203653,0.2559,0.7669,0.5886
-2.36181830691855,-2.61832625876856,17.8993480203653,0.2559,0.7669,0.5886
2.37227107179772,-2.52725964024088,15.4685122118113,0.2482,-0.406,0.8795
-2.64344079375132,-2.24208208975724,17.9465122118113,0.2482,-0.406,0.8795
2.18798589237631,-2.13746968196199,15.5156764032572,0.9542,0.2158,-0.2072
-2.24487066830754,-2.07764640618101,17.9936764032572,0.9542,0.2158,-0.2072
2.52430097730818,-1.81285759975455,15.5628405947032,0.6008,0.4954,-0.6274
-1.93759479034084,-2.42987129895205,18.0408405947032,0.6008,0.4954,-0.6274
2.81753164142616,-1.66005367642892,15.6100047861492,0.4817,-0.2981,-0.8241
-1.79974117366931,-2.73042019968762,18.0880047861492,0.4817,-0.2981,-0.8241
2.79216120423109,-2.12325316615335,15.6571689775951,0.2048,0.7742,-0.5989
-2.26107699698554,-2.68177161810925,18.1351689775951,0.2048,0.7742,-0.5989
2.49893054011311,-2.27605708947898,15.7043331690411,0.4431,0.0472,-0.8952
-2.39893061365706,-2.38122271737368,18.1823331690411,0.4431,0.0472,-0.8952
2.77421363734911,-1.9007206634107,15.7514973604871,0.2352,0.9477,0.2159
-2.03792325836784,-2.67504563306379,18.2294973604871,0.2352,0.9477,0.2159
3.16339693048847,-2.21339464150145,15.798661551933,-0.5287,0.8377,-0.1368
-2.36978651453085,-3.04800063228323,18.276661551933,-0.5287,0.8377,-0.1368
2.85225608591128,-2.61139025477084,15.845825743379,0.7412,0.5888,0.3223
-2.75161982215871,-2.71722509127111,18.323825743379,0.7412,0.5888,0.3223
2.46307312568289,-2.29871629345493,15.892989934825,0.1173,0.9911,-0.0629
-2.41975659950286,-2.34427042369663,18.370989934825,0.1173,0.9911,-0.0629
2.86613957548461,-1.96410009878141,15.9401541262709,0.3784,0.8648,0.3301
-2.10584851531778,-2.76366555406513,18.4181541262709,0.3784,0.8648,0.3301
2.87047244262036,-2.12649191185448,15.9873183177169,0.669,0.2499,0.7
-2.26825261421308,-2.75982064148034,18.4653183177169,0.669,0.2499,0.7
2.56573088675157,-2.51073981343857,16.0344825091629,0.1016,0.9933,0.0545
-2.63667767073976,-2.43612812771392,18.5124825091629,0.1016,0.9933,0.0545
2.56139803639065,-2.34834766745452,16.0816467006089,0.8165,0.4166,0.3997
-2.4742732401995,-2.43997307380587,18.5596467006089,0.8165,0.4166,0.3997
2.82820680415966,-1.98018319562762,16.1288108920548,0.5609,0.7612,0.3255
-2.12000228516185,-2.72497147255701,18.6068108920548,0.5609,0.7612,0.3255
3.28216128783967,-1.91051629565803,16.1759750835008,0.2035,0.9538,0.2209
-2.07326869913811,-3.18185671213246,18.6539750835008,0.2035,0.9538,0.2209
3.27693674733263,-2.38889651980224,16.2231392749468,0.8495,0.239,0.4704
-2.5507798541786,-3.15256453761994,18.7011392749468,0.8495,0.239,0.4704
2.82298191396681,-2.45856373590796,16.2703034663927,0.2422,0.9696,0.0359
-2.59751373834014,-2.69567893289236,18.7483034663927,0.2422,0.9696,0.0359
1.67584923479562,-2.11724903060789,14.81237,0.3909,0.7997,-0.4558
-2.19890260801672,-1.56717626189027,17.29037,0.3909,0.7997,-0.4558
1.32210492947375,-2.47045823058263,14.859534191446,0.6466,0.6041,-0.4658
-2.53386225177319,-1.1961050968168,17.337534191446,0.6466,0.6041,-0.4658
0.961472200287054,-2.14039601353287,14.9066983828919,-0.0135,0.9944,0.1045
-2.1860695823161,-0.852539540399454,17.3846983828919,-0.0135,0.9944,0.1045
1.31521617269795,-1.78718679678329,14.9538625743379,0.647,0.1598,-0.7455
-1.85110990505247,-1.22361037382797,17.4318625743379,0.647,0.1598,-0.7455
1.72937964499361,-2.05500138317326,15.0010267657839,0.4357,0.7747,-0.4582
-2.13942772547098,-1.62377142752552,17.4790267657839,0.4357,0.7747,-0.4582
1.86620965092971,-2.19200621678293,15.0481909572298,0.59,0.7241,-0.3571
-2.28314486683871,-1.75353335658786,17.5261909572298,0.59,0.7241,-0.3571
1.37866457201547,-2.24733351681898,15.0953551486758,0.7987,-0.0724,-0.5973
-2.31386659187248,-1.26382171723902,17.5733551486758,0.7987,-0.0724,-0.5973
1.24183456607936,-2.11032868320931,15.1425193401218,0.182,0.9385,-0.2933
-2.17014945050476,-1.13405978817669,17.6205193401218,0.182,0.9385,-0.2933
1.72685083193236,-2.17554452650262,15.1896835315677,0.5017,0.261,-0.8247
-2.25969086954375,-1.61517954315971,17.6676835315677,0.5017,0.261,-0.8247
1.79964050914836,-2.67682212467277,15.2368477230137,0.5229,0.4248,-0.739
-2.76399641363507,-1.66265043671781,17.7148477230137,0.5229,0.4248,-0.739
1.29974018395569,-2.74846866403816,15.2840119144597,0.33,0.874,-0.3566
-2.81039492838906,-1.15977794834785,17.7620119144597,0.33,0.874,-0.3566
1.22695019060355,-2.2471907161822,15.3311761059056,0.5539,-0.0324,-0.832
-2.30608901914561,-1.11230675665195,17.8091761059056,0.5539,-0.0324,-0.832
1.67810234724,-2.39828651473784,15.3783402973516,0.3555,0.9347,-0.0041
-2.47969738160963,-1.55528344369254,17.8563402973516,0.3555,0.9347,-0.0041
1.38869169097861,-2.49695842178456,15.4255044887976,0.6532,0.7011,0.2861
-2.56367981171833,-1.26127387814929,17.9035044887976,0.6532,0.7011,0.2861
0.976082119600102,-2.3672687168258,15.4726686802435,0.8358,0.1259,0.5344
-2.41339005659403,-0.855713688448526,17.9506686802435,0.8358,0.1259,0.5344
1.26549244295052,-2.26859679300424,15.5198328716895,0.3235,0.9242,0.2029
-2.32940759297816,-1.14972292234681,17.9978328716895,0.3235,0.9242,0.2029
1.66380846087408,-2.33200553174538,15.5669970631355,0.6605,-0.2532,0.7069
-2.41278104907615,-1.54434322732553,18.0449970631355,0.6605,-0.2532,0.7069
1.99717711594937,-2.41051762964376,15.6141612545814,0.2601,0.2712,0.9267
-2.50797028245482,-1.87333839378226,18.0921612545814,0.2601,0.2712,0.9267
1.6251585052298,-2.58750689904401,15.6613254460274,0.4367,0.521,0.7334
-2.66601363501067,-1.49288426130705,18.1393254460274,0.4367,0.521,0.7334
1.29178983337967,-2.5089951340566,15.7084896374734,0.8849,-0.3258,0.3329
-2.57082473327696,-1.16388906134315,18.1864896374734,0.8849,-0.3258,0.3329
1.72225610372821,-2.5355461169637,15.7556538289193,0.5671,0.8225,-0.0444
-2.61900508125132,-1.59247373053954,18.2336538289193,0.5671,0.8225,-0.0444
1.55804088985792,-2.94429598487627,15.8028180203653,0.9498,0.3017,-0.0832
-3.01897297846951,-1.40789645084385,18.2808180203653,0.9498,0.3017,-0.0832
1.08372987853376,-2.84386158691317,15.8499822118113,0.9697,0.2415,0.0369
-2.89479636629988,-0.939240742730072,18.3279822118113,0.9697,0.2415,0.0369
1.24794544208986,-2.43511140286448,15.8971464032572,0.5339,0.8417,0.0806
-2.4948281709439,-1.12381838757789,18.3751464032572,0.5339,0.8417,0.0806
1.72553874693971,-2.60946998194422,15.9443105947032,0.5696,0.7599,-0.3131
-2.69300047612228,-1.5920320315444,18.4223105947032,0.5696,0.7599,-0.3131
1.70658745215605,-2.50166199903674,15.9914747861492,-0.33,0.944,0.0037
-2.5843753799267,-1.57853013430524,18.4694747861492,-0.33,0.944,0.0037
1.21442618995592,-2.38936393024402,16.0386389775951,-0.0062,0.9974,0.0711
-2.44745182390145,-1.09264382654344,18.5166389775952,-0.0062,0.9974,0.0711
1.23337781765056,-2.49717192992633,16.0858031690411,0.8204,0.5644,-0.0915
-2.55607695360419,-1.10614605542756,18.5638031690411,0.8204,0.5644,-0.0915
1.68722548817845,-2.657426316927,16.1329673604871,-0.158,0.9872,-0.0226
-2.73896795027311,-1.55135393938067,18.6109673604871,-0.158,0.9872,-0.0226
1.73890131194421,-3.09797342013848,16.1801315519331,0.8765,0.4515,-0.1667
-3.18155740539295,-1.58079396530828,18.658131551933,0.8765,0.4515,-0.1667
1.26674128810986,-3.05415300409913,16.227295743379,0.7244,0.685,-0.0781
-3.11403128803811,-1.11143744788885,18.705295743379,0.7244,0.685,-0.0781
1.21506544756926,-2.61360623379863,16.274459934825,0.2696,0.9626,0.028
-2.67144216456324,-1.08199738845407,18.752459934825,0.2696,0.9626,0.028
1.52664395673537,-2.89028951878656,16.321624126271,0.8969,0.125,-0.4242
-2.96345490745384,-1.37925714953081,18.7996241262709,0.8969,0.125,-0.4242
1.1465710112431,-2.90183516048698,16.3687883177169,0.2545,0.9284,-0.2707
-2.95585893232189,-0.999084758503739,18.8467883177169,0.2545,0.9284,-0.2707
0.912072236557928,-2.53100157986304,16.4159525091629,0.6453,0.6364,-0.4226
-2.57369419031239,-0.783545133812512,18.8939525091629,0.6453,0.6364,-0.4226
1.29214484913923,-2.51945592138778,16.4631167006089,0.8504,0.3937,-0.349
-2.58129013193717,-1.16371719319462,18.9411167006089,0.8504,0.3937,-0.349
1.56492871397912,-2.87972646313602,16.5102808920548,-0.2121,0.9721,0.0998
-2.95483189798611,-1.41802497755365,18.9882808920548,-0.2121,0.9721,0.0998
1.70375393230116,-3.04447752824319,16.5574450835008,0.8596,0.3923,-0.3274
-3.12636052222144,-1.54838327519536,19.0354450835008,0.8596,0.3923,-0.3274
1.29336728121931,-2.82692269174612,16.6046092749468,0.4289,0.8895,-0.1576
-2.88842883521286,-1.1494649595132,19.0826092749468,0.4289,0.8895,-0.1576
1.1545423790334,-2.66217197632476,16.6517734663927,0.4814,0.8762,0.0237
-2.71690057612965,-1.01910696000928,19.1297734663927,0.4814,0.8762,0.0237
1.51926375247004,-2.98475347374354,16.6989376578387,0.9999,-0.0113,-0.0046
-3.05742776368429,-1.36713244363738,19.1769376578387,0.9999,-0.0113,-0.0046
1.26280360428084,-3.37277890030058,16.7461018492847,0.3793,0.9205,-0.0943
-3.43205529729456,-1.09147005896168,19.2241018492847,0.3793,0.9205,-0.0943
0.838119037662657,-3.09659390559514,16.7932660407306,0.9701,0.1884,-0.1532
-3.1348482055537,-0.68122247878228,19.2712660407306,0.9701,0.1884,-0.1532
1.09457953553767,-2.70856816290197,16.8404302321766,0.9599,0.2498,-0.1269
-2.76022037380565,-0.956885228610105,19.3184302321766,0.9599,0.2498,-0.1269
1.9227709036082,-1.89661835409916,16.8875944236226,0.6088,0.7859,-0.1082
-1.99097770233004,-1.82488819320327,19.3655944236226,0.6088,0.7859,-0.1082
1.96708638142387,-2.13324933982535,16.9347586150685,0.8325,-0.3235,-0.4498
-2.22953901240059,-1.85723917954375,19.4127586150685,0.8325,-0.3235,-0.4498
1.78183492625499,-2.55717246145857,16.9819228065145,0.6779,0.5883,-0.441
-2.64360229890211,-1.65088872650572,19.4599228065145,0.6779,0.5883,-0.441
1.73751943166448,-2.32054180864336,17.0290869979605,0.8665,0.391,-0.3104
-2.40504132047653,-1.61853770665807,19.5070869979605,0.8665,0.391,-0.3104
1.82515023147765,-1.92093345008687,17.0762511894064,0.0571,0.7642,-0.6424
-2.01034927589984,-1.72616756892677,19.5542511894064,0.0571,0.7642,-0.6424
2.16986133473817,-1.62410676647499,17.1234153808524,0.0107,0.9609,0.2768
-1.73124611574106,-2.08537955481324,19.6014153808524,0.0107,0.9609,0.2768
2.37248529092314,-2.02957748364052,17.1705795722984,-0.0895,0.3561,-0.9301
-2.1464000213662,-2.26734165180865,19.6485795722984,-0.0895,0.3561,-0.9301
2.02777418766262,-2.3264041672524,17.2177437637443,-0.1497,0.7242,-0.6732
-2.42550318152498,-1.90812966592219,19.6957437637443,-0.1497,0.7242,-0.6732
2.15717821927574,-1.9402557479309,17.2649079551903,-0.1325,0.875,-0.4656
-2.04635623907769,-2.05680246496458,19.7429079551903,-0.1325,0.875,-0.4656
2.51879449843488,-2.25941598129233,17.3120721466363,-0.3732,0.0946,-0.9229
-2.38331023522355,-2.40189896218464,19.7900721466363,-0.3732,0.0946,-0.9229
2.24695466778288,-2.65094921075608,17.3592363380822,0.5801,0.8108,0.0785
-2.76066715197115,-2.11069985386532,19.8372363380822,0.5801,0.8108,0.0785
1.88533838862374,-2.33178897739465,17.4064005295282,-0.3251,0.9421,0.0825
-2.42371315582529,-1.76560335664525,19.8844005295282,-0.3251,0.9421,0.0825
2.10603192400111,-1.8911442737408,17.4535647209742,-0.7332,0.6765,-0.0691
-1.99473308048941,-2.0081924874413,19.9315647209742,-0.7332,0.6765,-0.0691
2.03403449811926,-1.81765191723915,17.5007289124201,0.0391,0.9969,-0.0684
-1.91771060906356,-1.93998475552452,19.9787289124201,0.0391,0.9969,-0.0684
2.04647536902513,-2.31843286155412,17.5478931038661,-0.8629,0.4397,0.2491
-2.41848310404611,-1.92720830348046,20.0258931038661,-0.8629,0.4397,0.2491
2.11847314459279,-2.39192490191963,17.5950572953121,-0.259,0.9554,0.1416
-2.49550527733417,-1.99541640054937,20.0730572953121,-0.259,0.9554,0.1416
2.05495089766976,-1.92259950207219,17.642221486758,-0.3229,0.9463,0.0172
-2.02357782449061,-1.95559321573579,20.120221486758,-0.3229,0.9463,0.0172
2.40409905728166,-1.64008457867666,17.689385678204,-0.5011,-0.02,-0.8652
-1.75899158310446,-2.31851640343631,20.167385678204,-0.5011,-0.02,-0.8652
2.65647348094245,-2.05978766434358,17.73654986965,-0.2386,0.9437,-0.2291
-2.19086349193046,-2.54944969294527,20.21454986965,-0.2386,0.9437,-0.2291
2.30732565424152,-2.34230260451394,17.7837140610959,-0.4563,-0.0655,-0.8874
-2.45544976682378,-2.18652683688971,20.2617140610959,-0.4563,-0.0655,-0.8874
2.16830227190161,-1.91860379239029,17.8308782525419,0.237,0.0444,-0.9705
-2.02529153090464,-2.06900204672544,20.3088782525419,0.237,0.0444,-0.9705
2.34296071601947,-2.17839490408988,17.8780424439879,-0.443,0.6316,-0.6363
-2.2935430680648,-2.2303653220733,20.3560424439879,-0.443,0.6316,-0.6363
2.45735727086194,-2.56739141236478,17.9252066354338,-0.9121,-0.3236,-0.2515
-2.68780363756519,-2.32504086562662,20.4032066354338,-0.9121,-0.3236,-0.2515
2.28269880996924,-2.30760063357617,17.9723708268798,-0.6894,0.7244,-0.001
-2.41955243204999,-2.16367755677159,20.4503708268798,-0.6894,0.7244,-0.001
2.19829201588614,-1.90032752092918,18.0195350183258,-0.915,0.3425,-0.2133
-2.0085476363584,-2.09987353580844,20.4975350183258,-0.915,0.3425,-0.2133
2.15398154300766,-1.61352221212883,18.0666992097717,-0.0289,0.9473,-0.319
-1.71987583002995,-2.07005254665904,20.5446992097717,-0.0289,0.9473,-0.319
2.29118139429995,-2.00789576511245,18.1138634012177,0.3975,0.6645,0.6328
-2.12065419597581,-2.18723189585214,20.5918634012177,0.3975,0.6645,0.6328
2.33549221686423,-2.29470075777667,18.1610275926637,-0.4168,0.7597,-0.4992
-2.40932570416647,-2.21705325015367,20.6390275926637,-0.4168,0.7597,-0.4992
2.42113049238374,-1.86865729764113,18.2081917841096,-0.1253,0.9802,-0.1532
-1.98813178060939,-2.32402344654883,20.6861917841096,-0.1253,0.9802,-0.1532
2.83239173919392,-2.07627355475833,18.2553559755556,0.0362,0.987,-0.1566
-2.21618149483391,-2.72431540398657,20.7333559755556,0.0362,0.987,-0.1566
2.64386457975664,-2.53838655116356,18.3025201670016,-0.3941,0.3691,-0.8417
-2.66822141819574,-2.51277151024547,20.7805201670016,-0.3941,0.3691,-0.8417
2.23260333294645,-2.33077029404636,18.3496843584475,-0.1462,0.9852,-0.0893
-2.44017170397122,-2.11247955280773,20.8276843584475,-0.1462,0.9852,-0.0893
2.51371588841694,-1.90342333107317,18.3968485498935,-0.4705,0.5457,-0.6934
-2.02751307802692,-2.41474194550541,20.8748485498935,-0.4705,0.5457,-0.6934
2.46152312640188,-1.99574339920822,18.4440127413395,-0.3406,0.5877,-0.7339
-2.11708959357123,-2.35796935308474,20.9220127413395,-0.3406,0.5877,-0.7339
2.23417072517088,-2.43595945552041,18.4911769327854,0.0432,0.9927,-0.113
-2.54530646048582,-2.10875136522992,20.9691769327854,0.0432,0.9927,-0.113
2.28636348718595,-2.34363938738536,18.5383411242314,-0.9682,0.1797,0.1743
-2.45572994494152,-2.16552395765058,21.0163411242314,-0.9682,0.1797,0.1743
2.48930967795093,-1.92404189236902,18.5855053156774,-0.4574,0.8784,0.1384
-2.04687728316613,-2.38932904054456,21.0635053156774,-0.4574,0.8784,0.1384
2.93980260601279,-1.87305712973648,18.6326695071233,-0.7334,0.6638,-0.1466
-2.01862796157704,-2.84181694102832,21.1106695071233,-0.7334,0.6638,-0.1466
2.901882841632,-2.34447182329062,18.6798336985693,-0.9392,-0.0931,-0.3305
-2.48753704055749,-2.78022150711349,21.1578336985693,-0.9392,-0.0931,-0.3305
2.45138993034498,-2.39545625301219,18.7269978900153,-0.4589,0.8859,0.0679
-2.51578603050161,-2.32773364013689,21.2049978900153,-0.4589,0.8859,0.0679
2.73579369715997,-2.07384222421594,18.7741620814612,-0.7986,0.0681,0.598
-2.20889199513592,-2.62796211505904,21.2521620814612,-0.7986,0.0681,0.598
2.86841763125196,-2.48368442974803,18.8213262729072,-0.5668,0.4893,0.6628
-2.62488913276541,-2.73979289263622,21.2993262729072,-0.5668,0.4893,0.6628
2.48350533807207,-2.74164175724426,18.8684904643532,-0.3904,0.8345,0.3889
-2.86314908195945,-2.34238673659425,21.3464904643532,-0.3904,0.8345,0.3889
2.35088138720524,-2.33179988462315,18.9156546557991,-0.6865,-0.0867,0.722
-2.44715227597492,-2.2305559255099,21.3936546557991,-0.6865,-0.0867,0.722
2.70452830848899,-2.01886781824545,18.9628188472451,-0.1517,0.9873,-0.0479
-2.15241383060901,-2.59950290262744,21.4408188472451,-0.1517,0.9873,-0.0479
2.81821277503105,-1.90093817438549,19.0099830386911,-0.1665,0.7196,-0.6741
-2.04035472910924,-2.71897807412744,21.4879830386911,-0.1665,0.7196,-0.6741
2.65824388801338,-2.35760478438767,19.057147230137,0.0031,0.357,-0.9341
-2.48839234836009,-2.53623035392117,21.535147230137,0.0031,0.357,-0.9341
2.54455942147132,-2.47553442824763,19.104311421583,0.0515,0.9643,-0.2597
-2.60045144985985,-2.41675518242117,21.582311421583,0.0515,0.9643,-0.2597
2.20731618541351,-2.30129705222372,19.151475613029,0.0613,-0.1262,-0.9901
-2.40946324364488,-2.0887076728174,21.629475613029,0.0613,-0.1262,-0.9901
2.42948767080654,-2.61731314308149,19.198639804475,0.1504,0.5638,-0.8121
-2.73625958921829,-2.29469429161252,21.676639804475,0.1504,0.5638,-0.8121
2.00527611212644,-2.89354791301155,19.2458039959209,0.2152,0.6341,-0.7427
-2.99079610526987,-1.85711886196361,21.7238039959209,0.2152,0.6341,-0.7427
1.78310462673341,-2.57753182215377,19.2929681873669,0.1787,-0.1776,-0.9677
-2.66399975969647,-1.65113224316849,21.7709681873669,0.1787,-0.1776,-0.9677
2.29812782982724,-2.58150681962066,15.531766,-0.015,0.8409,-0.5409
-2.69388801467387,-2.16530283017663,18.009766,-0.015,0.8409,-0.5409
2.20498679400922,-3.01884868963513,15.578930191446,0.0089,0.1227,-0.9924
-3.12598845931494,-2.05027079306529,18.056930191446,0.0089,0.1227,-0.9924
1.7092344712903,-2.96059671658396,15.6260943828919,0.1388,0.258,-0.9561
-3.04286179984776,-1.55807813126365,18.1040943828919,0.1388,0.258,-0.9561
1.80237519097219,-2.52325449688369,15.6732585743379,0.5763,0.8132,0.0815
-2.61076099005456,-1.6731098702372,18.1512585743379,0.5763,0.8132,0.0815
2.20019048970683,-2.43535364896275,15.7204227657839,-0.683,0.6969,-0.2189
-2.54299138258278,-2.07484467240858,18.1984227657839,-0.683,0.6969,-0.2189
2.66611759987671,-2.60318285918409,15.7675869572298,0.1457,0.9678,0.2053
-2.73405549652639,-2.53173549104879,18.2455869572298,0.1457,0.9678,0.2053
2.48005695583422,-3.06719572240527,15.8147511486758,-0.2759,0.9437,-0.1827
-3.18811700561545,-2.32255937754634,18.2927511486758,-0.2759,0.9437,-0.1827
2.0141298288895,-2.8993668450949,15.8619153401218,-0.6394,0.4846,-0.5969
-2.99705322331681,-1.86566852539896,18.3399153401218,-0.6394,0.4846,-0.5969
2.4214799945972,-2.78673082661494,15.9090795315677,0.037,0.9989,0.0279
-2.90505962433652,-2.27817089861367,18.3870795315677,0.037,0.9989,0.0279
2.42769936126343,-3.28817985658358,15.9562437230137,-0.7993,0.4477,-0.4008
-3.40618626425545,-2.25914720439338,18.4342437230137,-0.7993,0.4477,-0.4008
1.92221618426039,-3.28946528838396,16.0034079144597,-0.4693,0.8447,-0.2574
-3.38203187036308,-1.75423982692332,18.4814079144597,-0.4693,0.8447,-0.2574
1.91599681759416,-2.78801625841532,16.0505721059056,-0.183,0.9598,-0.2126
-2.88090523044415,-1.77326352114361,18.5285721059056,-0.183,0.9598,-0.2126
2.44737269440882,-2.7688291813982,16.0977362973516,-0.8185,0.3015,-0.489
-2.88848369958191,-2.30493168192675,18.5757362973516,-0.8185,0.3015,-0.489
2.51755493185865,-2.89166571249761,16.1449004887976,-0.1503,0.9886,0.0085
-3.01469647404403,-2.36884330362871,18.6229004887976,-0.1503,0.9886,0.0085
2.07763803772899,-3.14303060684662,16.1920646802435,-0.9311,0.2181,-0.2923
-3.24360426324081,-1.91683400295358,18.6700646802435,-0.9311,0.2181,-0.2923
2.00745583382883,-3.02019340992527,16.2392288716895,-0.8736,0.067,-0.482
-3.11739082548877,-1.85292244826596,18.7172288716895,-0.8736,0.067,-0.482
2.41928447060871,-2.77564429038728,16.2863930631355,-0.413,0.849,-0.3297
-2.89387664696611,-2.27653608111802,18.7643930631355,-0.413,0.849,-0.3297
2.83819363447233,-3.04981074975453,16.3335572545814,-0.6953,-0.4039,-0.5945
-3.18877711666058,-2.68111715826433,18.8115572545814,-0.6953,-0.4039,-0.5945
2.55328736786577,-3.45623161431146,16.3807214460274,-0.1096,0.445,-0.8888
-3.58034524257391,-2.37611895717518,18.8587214460274,-0.1096,0.445,-0.8888
2.13437788786602,-3.1820648052584,16.4278856374734,0.3697,0.3876,-0.8444
-3.28544440772731,-1.97153758189108,18.9058856374734,0.3697,0.3876,-0.8444
2.54498916741154,-3.05033971335109,16.4750498289193,0.0916,-0.3626,-0.9274
-3.17455003670729,-2.38825758525554,18.9530498289193,0.0916,-0.3626,-0.9274
2.39044271525187,-3.42422564826079,16.5222140203653,-0.3953,0.8012,-0.4493
-3.5401847521264,-2.21509132676725,19.0002140203653,-0.3953,0.8012,-0.4493
1.94368942559407,-3.43436418423576,16.5693782118113,-0.8164,0.0119,-0.5774
-3.52782779804483,-1.7683938929067,19.0473782118113,-0.8164,0.0119,-0.5774
2.09823591130342,-3.06047758350411,16.6165424032572,-0.7477,0.3538,-0.5619
-3.1621924193358,-1.94156021840932,19.0945424032572,-0.7477,0.3538,-0.5619
2.53306318602034,-2.98308032097624,16.6637065947032,-0.4452,0.7885,-0.4243
-3.10677569819077,-2.37973151151521,19.1417065947032,-0.4452,0.7885,-0.4243
2.81320206104422,-2.98559235762676,16.7108707861492,-0.7716,-0.2099,-0.6005
-3.12338240558262,-2.65938901078419,19.1888707861492,-0.7716,-0.2099,-0.6005
2.47983992024521,-3.29778764556848,16.7580349775951,-0.0474,0.9638,0.2624
-3.41840582785956,-2.31073818970512,19.2360349775951,-0.0474,0.9638,0.2624
2.19970139490715,-3.29527529278182,16.8051991690411,-0.1332,0.9431,-0.3046
-3.40179882232992,-2.03108105558827,19.2831991690411,-0.1332,0.9431,-0.3046
2.6436598506886,-3.13794460371988,16.8523633604871,-0.1431,0.63,-0.7633
-3.2670094790793,-2.48239457092613,19.3303633604871,-0.1431,0.63,-0.7633
2.79014430062249,-3.60112157917779,16.899527551933,0.0636,0.9938,0.0912
-3.7369713309173,-2.60538425538696,19.377527551933,0.0636,0.9938,0.0912
2.31105549236371,-3.76275446810811,16.946691743379,-0.3314,0.2144,-0.9188
-3.87428950476421,-2.11876839445133,19.424691743379,-0.3314,0.2144,-0.9188
2.16457137534079,-3.29957750942503,16.993855934825,-0.1725,0.7176,-0.6747
-3.40432768643338,-1.99577904163546,19.471855934825,-0.1725,0.7176,-0.6747
2.66136026890503,-3.21663407467987,17.041020126271,-0.0284,0.8135,-0.5809
-3.34649000908902,-2.49611255162207,19.5190201262709,-0.0284,0.8135,-0.5809
2.50973058516778,-3.27526467375355,17.0881843177169,-0.2485,0.063,-0.9666
-3.39741562776802,-2.34172443841331,19.5661843177169,-0.2485,0.063,-0.9666
2.04762533875996,-3.405460752578,17.1353485091629,-0.184,0.9507,-0.2497
-3.50419151405669,-1.87365266207323,19.6133485091629,-0.184,0.9507,-0.2497
2.19925533863335,-3.34683050319013,17.1825127006089,-0.4354,0.4209,-0.7958
-3.45326626052981,-2.02804107341978,19.6605127006089,-0.4354,0.4209,-0.7958
2.61709859685025,-3.18671338211095,17.2296768920548,-0.3152,0.4464,-0.8375
-3.31437978118304,-2.4534127071175,19.7076768920548,-0.3152,0.4464,-0.8375
2.98561026169516,-3.34499811342664,17.2768410835008,-0.0678,0.9327,-0.3542
-3.49100912457635,-2.81349183501426,19.7548410835008,-0.0678,0.9327,-0.3542
2.65814163050775,-3.6546888158821,17.3240052749468,-0.9401,0.3157,0.1285
-3.78382772290751,-2.47085309804705,19.8020052749468,-0.9401,0.3157,0.1285
2.28962998243768,-3.49640375165543,17.3711694663927,-0.1314,0.9825,0.1317
-3.60719804786924,-2.11077400365745,19.8491694663927,-0.1314,0.9825,0.1317
2.71629904529438,-3.40857170933862,17.4183336578387,-0.4702,0.8824,-0.019
-3.54094921057447,-2.54132254727785,19.8963336578387,-0.4702,0.8824,-0.019
2.61366251833101,-3.82752876161859,17.4654978492847,-0.9596,0.2702,-0.0784
-3.95421027652978,-2.4177322576605,19.9434978492847,-0.9596,0.2702,-0.0784
2.14444568866533,-3.83380059802718,17.5126620407306,-0.113,0.9933,0.022
-3.93686105549404,-1.94879433671264,19.9906620407306,-0.113,0.9933,0.022
2.24708223240354,-3.41484321283624,17.5598262321766,-0.9733,0.1985,0.1156
-3.52359965789376,-2.07238465983716,20.0378262321766,-0.9733,0.1985,0.1156
2.39999216892986,-2.6225881467085,17.6069904236226,-0.8311,0.5551,0.0341
-2.74004356208899,-2.26497070092203,20.0849904236226,-0.8311,0.5551,0.0341
2.50516016128195,-2.48213170544499,17.6541546150685,-0.5422,0.8391,-0.0441
-2.60505761901511,-2.37707383950536,20.1321546150685,-0.5422,0.8391,-0.0441
2.02025168510956,-2.55349634518781,17.7013188065145,-0.9699,-0.158,0.1854
-2.65192904890344,-1.88918839072699,20.1793188065145,-0.9699,-0.158,0.1854
1.91508334307166,-2.69395310258746,17.7484829979605,-0.5378,0.8027,0.2578
-2.78691529011511,-1.77708488699153,20.2264829979605,-0.5378,0.8027,0.2578
2.39815099889176,-2.62852634823213,16.074,-0.8937,0.3288,0.3052
-2.74588158343502,-2.26283302667,18.552,-0.8937,0.3288,0.3052
2.58900938024035,-3.05923327818786,16.121164191446,-0.9759,0.1561,0.1522
-3.18564762864189,-2.43177445653844,18.599164191446,-0.9759,0.1561,0.1522
2.12016903361047,-3.22487065668434,16.1683283828919,0.139,0.9903,0.008
-3.32748096692699,-1.95519254759296,18.6463283828919,0.139,0.9903,0.008
1.92931035290058,-2.79416304413183,16.2154925743379,-0.8553,0.2711,-0.4416
-2.88771422492303,-1.78625085309388,18.6934925743379,-0.8553,0.2711,-0.4416
2.37255565411353,-2.73960368553875,16.2626567657839,-0.4387,0.8741,-0.2083
-2.8555301033534,-2.23168019987768,18.7406567657839,-0.4387,0.8741,-0.2083
2.07172427815138,-2.81542222663924,16.3098209572298,-0.4043,0.806,-0.4323
-2.91611338238039,-1.9274144702264,18.7878209572298,-0.4043,0.806,-0.4323
1.67142542955567,-2.85485901654489,16.3569851486758,-0.6084,-0.1165,-0.785
-2.93535535628901,-1.52563819538527,18.8349851486758,-0.6084,-0.1165,-0.785
1.97225682229266,-2.77904014253342,16.4041493401218,-0.3433,0.8829,-0.3203
-2.87477174561706,-1.82990395854372,18.8821493401218,-0.3433,0.8829,-0.3203
2.3335668378458,-2.66415499254928,16.4513135315677,-0.7828,0.1122,-0.612
-2.77821491662657,-2.19653770467355,18.9293135315677,-0.7828,0.1122,-0.612
2.5860404027298,-2.46518649360399,16.4984777230137,-0.7517,0.4029,-0.5222
-2.59220413725433,-2.45870435872229,18.9764777230137,-0.7517,0.4029,-0.5222
2.29348493885902,-2.72598923934174,16.5456419144597,-0.3484,0.8996,-0.2635
-2.83795371217906,-2.1533948140806,19.0236419144597,-0.3484,0.8996,-0.2635
2.04101139074985,-2.92495740537606,16.5928061059056,-0.9502,0.012,-0.3114
-3.02396415990633,-1.89122819353903,19.0708061059056,-0.9502,0.012,-0.3114
2.23208329151076,-2.56652117206832,16.6399702973516,-0.5085,0.8575,-0.0782
-2.67559769563597,-2.1000961211392,19.1179702973516,-0.5085,0.8575,-0.0782
2.57962313920151,-2.71543162883859,16.6871344887976,-0.736,0.6018,-0.31
-2.84180924587391,-2.43970176072127,19.1651344887976,-0.736,0.6018,-0.31
2.52582036394157,-3.19445465791455,16.7342986802435,-0.1402,0.989,-0.046
-3.31751771513904,-2.36186055517945,19.2122986802435,-0.1402,0.989,-0.046
2.17828051625081,-3.04554420114428,16.7814628716895,-0.0196,0.6457,-0.7633
-3.1513061649011,-2.02225491559737,19.2594628716895,-0.0196,0.6457,-0.7633
2.08271810383213,-2.59049748768638,16.8286270631355,0.0604,0.7166,0.6948
-2.69202690032434,-1.94971359477993,19.3066270631355,0.0604,0.7166,0.6948
1.92899258758303,-2.77455754431722,16.8757912545814,0.0454,0.9704,0.2372
-2.86811757548385,-1.78692012772775,19.3537912545814,0.0454,0.9704,0.2372
2.21029120659787,-3.18938137708041,16.9229554460274,-0.0578,0.9853,0.161
-3.29657200998904,-2.0469865093322,19.4009554460274,-0.0578,0.9853,0.161
2.36401672284697,-3.00532132044957,16.9701196374734,0.126,0.4971,0.8585
-3.12048133482954,-2.20977997638438,19.4481196374734,0.126,0.4971,0.8585
2.11855947294746,-2.60298400872774,17.0172838289193,0.109,0.9922,-0.0604
-2.70630129953308,-1.98488117182196,19.4952838289193,0.109,0.9922,-0.0604
2.2835483216927,-2.26332595189027,17.0644480203653,0.6187,0.485,0.618
-2.37537660125171,-2.16675409408438,19.5424480203653,0.6187,0.485,0.618
2.53901136397596,-2.62795902595171,17.1116122118113,0.3055,0.1736,0.9362
-2.75240370989438,-2.4035434604433,19.5896122118113,0.3055,0.1736,0.9362
2.37402251523072,-2.96761708278918,17.1587764032572,0.0753,0.8417,0.5346
-3.08332840817575,-2.22167053818088,19.6367764032572,0.0753,0.8417,0.5346
2.36969212073408,-2.59894802411528,17.2059405947032,0.5707,-0.1534,0.8067
-2.7149085581492,-2.23589872311116,19.6839405947032,0.5707,-0.1534,0.8067
2.44835576560726,-2.93516641677801,17.2531047861492,0.49,0.6855,0.5384
-3.05465964474922,-2.29754266639477,19.7311047861492,0.49,0.6855,0.5384
2.26576548821232,-3.30391154589741,17.3002689775951,0.4181,0.5814,0.698
-3.41374877622522,-2.09662682504756,19.7782689775951,0.4181,0.5814,0.698
2.18710151042817,-2.96769313645984,17.3474331690411,-0.5691,0.5568,0.6051
-3.07399765611804,-2.034982550119,19.8254331690411,-0.5691,0.5568,0.6051
2.38748482940208,-2.57398013057555,17.3945973604871,0.1909,0.9647,-0.1816
-2.69086771043713,-2.25492538416455,19.8725973604871,0.1909,0.9647,-0.1816
2.3814277574553,-2.36026184625016,17.441761551933,-0.54,0.4341,0.7211
-2.47711540532507,-2.25963125654253,19.919761551933,-0.54,0.4341,0.7211
2.24023163544729,-2.80215146294056,17.488925743379,-0.6424,0.5973,0.4802
-2.91133948525538,-2.09637615978423,19.966925743379,-0.6424,0.5973,0.4802
2.24628869061923,-3.01587008017692,17.536089934825,-0.2921,0.9341,0.2051
-3.1250921220124,-2.09167025389908,20.014089934825,-0.2921,0.9341,0.2051
2.45619252031943,-2.57857763737873,17.583254126271,-0.344,0.2006,0.9173
-2.69891707321393,-2.32331464954215,20.0612541262709,-0.344,0.2006,0.9173
2.86407124470922,-2.74699967509267,17.6304183177169,0.0473,0.9739,0.2218
-2.88765200648818,-2.7222008006674,20.1084183177169,0.0473,0.9739,0.2218
2.66538115123844,-3.2129687794159,17.6775825091629,-0.1932,0.7341,0.651
-3.34303170701508,-2.50031279338612,20.1555825091629,-0.1932,0.7341,0.651
2.25750244362349,-3.04454640879098,17.7247467006089,0.17,0.919,0.3557
-3.15429644209586,-2.10142667576804,20.2027467006089,0.17,0.919,0.3557
2.51386298698341,-2.63111544545573,17.7719108920548,-0.4621,0.7816,-0.419
-2.75429055002233,-2.37826810320001,20.2499108920548,-0.4621,0.7816,-0.419
2.40650318047828,-2.81269902949552,17.8190750835008,0.5952,0.5717,0.5646
-2.9302412224505,-2.26190622405725,20.2970750835008,0.5952,0.5717,0.5646
2.17788298436548,-3.21264025315582,17.8662392749468,0.291,0.8894,0.3527
-3.31817048703386,-2.01344885923712,20.3442392749468,0.291,0.8894,0.3527
2.28524279087061,-3.03105666911603,17.9134034663927,0.1328,0.8893,0.4376
-3.1422198146057,-2.12981073837987,20.3914034663927,0.1328,0.8893,0.4376
2.47226229599909,-2.6378778125597,17.9605676578387,0.453,0.2669,0.8506
-2.75895081395949,-2.3363798108111,20.4385676578387,0.453,0.2669,0.8506
2.73590462112051,-2.43144558560019,18.0077318492847,0.1173,0.9918,0.0508
-2.56604782619216,-2.61007668188077,20.4857318492847,0.1173,0.9918,0.0508
2.68393189221226,-2.85839205898044,18.0548960407306,0.5005,0.569,0.6525
-2.98983782118963,-2.53668393140742,20.5328960407306,0.5005,0.569,0.6525
2.42028956709085,-3.06482428593995,18.1020602321766,0.3655,0.6405,0.6754
-3.18274080895696,-2.26298706033776,20.5800602321766,0.3655,0.6405,0.6754
2.61911229415375,-2.79350916542273,18.1492244236226,-0.0866,0.9245,0.3712
-2.92177512453976,-2.47521166535486,20.6272244236226,-0.0866,0.9245,0.3712
2.86421968504558,-3.23197364671889,18.1963886150685,0.1339,-0.2292,0.9641
-3.37201894686476,-2.69794297183485,20.6743886150685,0.1339,-0.2292,0.9641
2.42080466002776,-3.47362886303454,18.2435528065145,0.1248,0.6736,0.7285
-3.59105331923058,-2.24292860754903,20.7215528065145,0.1248,0.6736,0.7285
2.17569761882174,-3.03516406560225,18.2907169979605,-0.5807,0.2514,0.7744
-3.14080919876778,-2.02019766622117,20.7687169979605,-0.5807,0.2514,0.7744
2.58755952960636,-2.7302885154052,16.790286,-0.9243,-0.3813,-0.0168
-2.85704670257492,-2.44688042942764,19.268286,-0.9243,-0.3813,-0.0168
2.78239220526078,-2.78253991588943,16.837450191446,-0.0618,0.6915,0.7198
-2.91903675666784,-2.63883670973328,19.315450191446,-0.0618,0.6915,0.7198
2.57571655245727,-3.24382821983842,16.8846143828919,0.6514,-0.1585,0.742
-3.36933971835525,-2.40920882049195,19.3626143828919,0.6514,-0.1585,0.742
2.3808838935777,-3.19157648644321,16.9317785743379,0.6247,0.4588,0.6318
-3.30734933261737,-2.21725257369347,19.4097785743379,0.6247,0.4588,0.6318
2.58571848106671,-2.75451890072674,16.9789427657839,0.3844,0.772,0.5062
-2.88115373614965,-2.44382233119793,19.4569427657839,0.3844,0.772,0.5062
3.08812908251037,-2.78622631432735,17.0261069572298,0.6528,-0.1825,0.7352
-2.93810454494416,-2.94400067728848,19.5041069572298,0.6528,-0.1825,0.7352
3.0612745071966,-3.29031225530727,17.0732711486758,0.2888,0.7982,-0.5286
-3.4402003245245,-2.89181224718661,19.5512711486758,0.2888,0.7982,-0.5286
2.55886387220326,-3.2586055075286,17.1204353401218,-0.0047,0.9785,0.2061
-3.38325017901991,-2.39163383408173,19.5984353401218,-0.0047,0.9785,0.2061
2.85097681928792,-2.92274238474895,17.1675995315677,-0.3194,0.8015,0.5056
-3.06251306520776,-2.70027879989396,19.6455995315677,-0.3194,0.8015,0.5056
2.94528471155674,-3.32455985263874,17.2147637230137,-0.0066,0.9921,-0.1252
-3.46856739687559,-2.77424592623634,19.6927637230137,-0.0066,0.9921,-0.1252
2.57031662088374,-3.57863035907574,17.2619279144597,-0.5203,0.1799,0.8348
-3.70344588712085,-2.38696697498257,19.7399279144597,-0.5203,0.1799,0.8348
2.47600872861491,-3.17681289118595,17.3090921059056,-0.169,0.8652,0.472
-3.29739155545302,-2.31299984864019,19.7870921059056,-0.169,0.8652,0.472
2.74019251425675,-2.86049834980953,17.3562562973516,-0.1777,0.9046,0.3874
-2.99477273183114,-2.59276726860172,19.8342562973516,-0.1777,0.9046,0.3874
2.98570670976648,-2.64557774467724,17.4034204887976,-0.1842,0.3811,0.906
-2.79247983198164,-2.84878615340849,19.8814204887976,-0.1842,0.3811,0.906
2.99728782569648,-3.09164709820578,17.4505846802435,0.0479,0.9989,-0.0009
-3.23856679345567,-2.83790437017155,19.9285846802435,0.0479,0.9989,-0.0009
2.75177331405061,-3.30656735365226,17.4977488716895,-0.0301,0.5921,0.8053
-3.44085932815305,-2.58188518722699,19.9757488716895,-0.0301,0.5921,0.8053
2.92926688097158,-2.88306268358225,17.5449130631355,0.4926,0.7475,0.4456
-3.02682355102032,-2.78046652351906,20.0229130631355,0.4926,0.7475,0.4456
3.36256660673005,-3.12262716417956,17.5920772545814,-0.0405,0.99,0.1354
-3.28789008354696,-3.20116125643206,20.0700772545814,-0.0405,0.99,0.1354
3.12938165833103,-3.56907259349208,17.6392414460274,0.739,0.0799,0.669
-3.72203491021844,-2.94580462153044,20.1172414460274,0.739,0.0799,0.669
2.6960819493474,-3.32950777998379,17.6864056374734,0.3477,0.8993,0.2652
-3.46096804604684,-2.52510992212461,20.1644056374734,0.3477,0.8993,0.2652
2.96470350389246,-2.89890542190009,17.944703,0.3178,0.5363,0.7819
-3.04442954624857,-2.81506096719817,20.422703,0.3178,0.5363,0.7819
2.90662669700749,-3.02240822270658,17.991867191446,0.2452,0.0339,0.9689
-3.16485317168911,-2.75084252949717,20.469867191446,0.2452,0.0339,0.9689
2.7223791819342,-3.47427660939602,18.0390313828919,0.2568,0.899,0.3548
-3.60687683712562,-2.54408841250293,20.5170313828919,0.2568,0.899,0.3548
2.78045632173014,-3.35077382536437,18.0861955743379,0.8975,-0.0752,0.4345
-3.48645324519225,-2.60830718184889,20.5641955743379,0.8975,-0.0752,0.4345
2.91842384957429,-2.91926688692792,18.1333597657839,0.8349,0.5082,0.2112
-3.06243621037546,-2.76781527206189,20.6113597657839,0.8349,0.5082,0.2112
3.3156743876286,-2.75767190791142,18.1805239572298,0.6867,0.6815,0.253
-2.92103742695297,-3.17269465073462,20.6585239572298,0.6867,0.6815,0.253
3.34825133955605,-3.21114191064504,18.2276881486758,0.8967,-0.1591,0.4131
-3.37557226572244,-3.18240966596468,20.7056881486758,0.8967,-0.1591,0.4131
2.95100081827659,-3.37273655675057,18.2748523401218,0.0122,0.9792,0.2026
-3.51697071749998,-2.77753032079912,20.7528523401218,0.0122,0.9792,0.2026
3.14094878972524,-3.00403041610197,18.3220165315677,-0.4001,0.4461,0.8006
-3.15829079749578,-2.9857925713277,20.8000165315677,-0.4001,0.4461,0.8006
3.29163880695465,-3.37494145960321,18.3691807230137,-0.6418,0.3104,0.7013
-3.53631526895636,-3.11762573278843,20.8471807230137,-0.6418,0.3104,0.7013
2.98968675531678,-3.70116655536416,18.4163449144597,-0.4247,0.874,0.2363
-3.84693141972489,-2.79963915842671,20.8943449144597,-0.4247,0.874,0.2363
