0.8237461863802,-0.493282187565325,28.1814635347839,0.4329,0.8259,0.3612
-0.759778370628245,0.587045078056741,28.1814635347839,0.4329,0.8259,0.3612
0.710470336412372,-0.485572802744473,28.2503794172782,0.6391,0.2245,0.7356
-0.648203815743216,0.566021959770966,28.2503794172782,0.6391,0.2245,0.7356
0.843240498918037,-0.329019027379483,25.958556,0.1976,0.9606,0.1954
-0.798521045723503,0.426230218227104,25.958556,0.1976,0.9606,0.1954
0.975245166640885,-0.446633169344941,26.0274718824943,0.828,0.0402,0.5592
-0.915723767993803,0.558600307685869,26.0274718824943,0.828,0.0402,0.5592
0.853109020192523,-0.591568917812345,26.0963877649886,0.7234,0.5363,0.4348
-0.777337283915624,0.688110116108022,26.0963877649886,0.7234,0.5363,0.4348
0.721104471978673,-0.47395473920539,26.1653036474829,0.5763,0.7302,0.3672
-0.66013468464329,0.555740004366965,26.1653036474829,0.5763,0.7302,0.3672
0.789688173573519,-0.333781376565857,26.2342195299772,0.9013,-0.1879,0.3904
-0.744780916286211,0.424639618453048,26.2342195299772,0.9013,-0.1879,0.3904
0.941469103496901,-0.219592179138272,26.3031354124716,0.5464,0.8192,0.1744
-0.908976661922277,0.329159879175132,26.3031354124716,0.5464,0.8192,0.1744
1.05557556897021,-0.371448680129141,26.3720512949659,0.008,0.9949,-0.1002
-1.00436532924803,0.493420904685804,26.3720512949659,0.008,0.9949,-0.1002
0.903794519537825,-0.485637914198221,26.4409671774602,0.2598,0.9625,-0.0779
-0.840169460613995,0.588900666246011,26.4409671774602,0.2598,0.9625,-0.0779
0.965139769294269,-0.330694818198006,26.5098830599545,-0.3745,0.8224,0.4283
-0.91937078494472,0.442279546041343,26.5098830599545,-0.3745,0.8224,0.4283
1.12377551886444,-0.422184571212763,26.5787989424488,0.5751,0.5897,-0.567
-1.06610142477981,0.551850506071705,26.5787989424488,0.5751,0.5897,-0.567
1.02939089933037,-0.587068101281919,26.6477148249431,0.0696,0.9843,-0.162
-0.952918529982814,0.704443648833849,26.6477148249431,0.0696,0.9843,-0.162
0.870755269269203,-0.495578311625666,26.7166307074374,0.327,0.929,-0.1733
-0.806188013145687,0.594872666521195,26.7166307074374,0.327,0.929,-0.1733
0.964993834351265,-0.315530063899121,26.7855465899317,0.7115,0.358,-0.6047
-0.921015451642499,0.427203533922538,26.7855465899317,0.7115,0.358,-0.6047
1.05209876013823,-0.295020375535152,26.8544624724261,0.0016,0.9967,-0.0816
-1.00993206476784,0.41711634782045,26.8544624724261,0.0016,0.9967,-0.0816
1.08155474777911,-0.482567453990404,26.9233783549204,0.2922,0.4107,-0.8637
-1.01704993046971,0.606829019597667,26.9233783549204,0.2922,0.4107,-0.8637
0.994449868218145,-0.503076866694881,26.9922942374147,0.3198,0.6335,-0.7046
-0.928133395777749,0.616915937421533,26.9922942374147,0.3198,0.6335,-0.7046
0.986157124533386,-0.320717160794168,27.061210119909,0.2206,0.9495,-0.2233
-0.941418737508454,0.434851850822572,27.061210119909,0.2206,0.9495,-0.2233
1.15049460009854,-0.225986644563847,27.1301260024033,0.9555,-0.2061,-0.211
-1.1157869846163,0.360176614090916,27.1301260024033,0.9555,-0.2061,-0.211
1.24585213076481,-0.389315516186545,27.1990418848976,0.4666,0.8546,-0.2281
-1.19120387915201,0.533617298415274,27.1990418848976,0.4666,0.8546,-0.2281
1.08151469184115,-0.484046151925865,27.2679577673919,0.9242,0.364,-0.1153
-1.01683565432646,0.608292658144896,27.2679577673919,0.9242,0.364,-0.1153
1.13368575819997,-0.321804961615153,27.3368736498862,0.9158,-0.2017,0.3472
-1.08778814289293,0.453341800242532,27.3368736498862,0.9158,-0.2017,0.3472
1.2484797195128,-0.43566508007958,27.4057895323806,0.2559,0.7669,0.5886
-1.18834342837741,0.57995307419457,27.4057895323806,0.2559,0.7669,0.5886
1.15937668173894,-0.587719737833074,27.4747054148749,0.2482,-0.406,0.8795
-1.08191913637962,0.72043026222818,27.4747054148749,0.2482,-0.406,0.8795
1.04458260091711,-0.473859656010143,27.5436212973692,0.9542,0.2158,-0.2072
-0.981363727897163,0.593819010558433,27.5436212973692,0.9542,0.2158,-0.2072
1.12165291342526,-0.316430195322022,27.6125371798635,0.6008,0.4954,-0.6274
-1.07647365009638,0.446584602684744,27.6125371798635,0.6008,0.4954,-0.6274
1.20549608585637,-0.225077514377086,27.6814530623578,0.4817,-0.2981,-0.8241
-1.17051143279897,0.365764522856029,27.6814530623578,0.4817,-0.2981,-0.8241
1.25576179101534,-0.391617290308759,27.7503689448521,0.2048,0.7742,-0.5989
-1.20077266482625,0.537072420860445,27.7503689448521,0.2048,0.7742,-0.5989
1.17191861858423,-0.482969971253695,27.8192848273464,0.4431,0.0472,-0.8952
-1.10673488212365,0.61789250068916,27.8192848273464,0.4431,0.0472,-0.8952
1.22098867779629,-0.315459700033671,27.8882007098407,0.2352,0.9477,0.2159
-1.17522983236707,0.457343431970486,27.8882007098407,0.2352,0.9477,0.2159
1.39816013275335,-0.375941554905915,27.957116592335,-0.5287,0.8377,-0.1368
-1.34402587928608,0.538310547300754,27.957116592335,-0.5287,0.8377,-0.1368
1.33934523043063,-0.556023735150197,28.0260324748294,0.7412,0.5888,0.3223
-1.26437057602862,0.710193696677675,28.0260324748294,0.7412,0.5888,0.3223
1.16217389498256,-0.495541843636457,28.0949483573237,0.1173,0.9911,-0.0629
-1.09557465210758,0.629226559065115,28.0949483573237,0.1173,0.9911,-0.0629
1.26149798341267,-0.326052837930897,28.163864239818,0.3784,0.8648,0.3301
-1.21420599013596,0.472643024697268,28.163864239818,0.3784,0.8648,0.3301
1.28378370098119,-0.382748718917498,28.2327801223123,0.669,0.2499,0.7
-1.22964534527131,0.531572664450071,28.2327801223123,0.669,0.2499,0.7
1.22546746795605,-0.557166262003517,28.3016960048066,0.1016,0.9933,0.0545
-1.15115370667597,0.697889605983469,28.3016960048066,0.1016,0.9933,0.0545
1.20318171374603,-0.500470261507917,28.3706118873009,0.8165,0.4166,0.3997
-1.13571432925832,0.638959843232701,28.3706118873009,0.8165,0.4166,0.3997
1.25018100180836,-0.336571652660738,28.4395277697952,0.5609,0.7612,0.3255
-1.20172676816458,0.481752830125609,28.4395277697952,0.5609,0.7612,0.3255
1.40131311217583,-0.253983176840017,28.5084436522895,0.2035,0.9538,0.2209
-1.361549049092,0.41757643538678,28.5084436522895,0.2035,0.9538,0.2209
1.46062158965277,-0.423299573530205,28.5773595347839,0.8495,0.239,0.4704
-1.40046219993293,0.592708683646239,28.5773595347839,0.8495,0.239,0.4704
1.30948939641779,-0.50588820550142,28.6462754172782,0.2422,0.9696,0.0359
-1.24063981828984,0.656885223665324,28.6462754172782,0.2422,0.9696,0.0359
0.861448762220294,-0.532196406455124,26.340026,0.3909,0.7997,-0.4558
-0.79262525995261,0.630136637769685,26.340026,0.3909,0.7997,-0.4558
0.781889447749436,-0.701935459085797,26.4089418824943,0.6466,0.6041,-0.4658
-0.693591081484014,0.789300898840069,26.4089418824943,0.6466,0.6041,-0.4658
0.612560529772396,-0.63167398151914,26.4778577649886,-0.0135,0.9944,0.1045
-0.53373685809689,0.699547988255375,26.4778577649886,-0.0135,0.9944,0.1045
0.692119724734255,-0.461934965529964,26.5467736474829,0.647,0.1598,-0.7455
-0.63277091356752,0.540383749467281,26.5467736474829,0.647,0.1598,-0.7455
0.872363430432655,-0.503408889904949,26.6156895299772,0.4357,0.7747,-0.4582
-0.806860856269161,0.602838306523531,26.6156895299772,0.4357,0.7747,-0.4582
0.938114633078122,-0.534217992926414,26.6846054124716,0.59,0.7241,-0.3571
-0.868516861348172,0.641191383531895,26.6846054124716,0.59,0.7241,-0.3571
0.773307465853047,-0.616044989858658,26.7535212949659,0.7987,-0.0724,-0.5973
-0.695204939732592,0.702997836444337,26.7535212949659,0.7987,-0.0724,-0.5973
0.70755626320758,-0.585235886837194,26.8224371774602,0.182,0.9385,-0.2933
-0.63354893465358,0.664644759435974,26.8224371774602,0.182,0.9385,-0.2933
0.886880697936311,-0.546228520902956,26.8913530599545,0.5017,0.261,-0.8247
-0.816223569893106,0.647071907418938,26.8913530599545,0.5017,0.261,-0.8247
0.976619294720521,-0.713644782604182,26.9602689424488,0.5229,0.4248,-0.739
-0.885578442889134,0.82390833473672,26.9602689424488,0.5229,0.4248,-0.739
0.809542453043627,-0.802804322720001,27.0291848249431,0.33,0.874,-0.3566
-0.709147397962655,0.892728251944906,27.0291848249431,0.33,0.874,-0.3566
0.719803700108921,-0.635387978151273,27.0981007074374,0.5539,-0.0324,-0.832
-0.63979237968637,0.71589172391145,27.0981007074374,0.5539,-0.0324,-0.832
0.898167508793638,-0.63098557982616,27.1670165899317,0.3555,0.9347,-0.0041
-0.817429393535937,0.732568674176419,27.1670165899317,0.3555,0.9347,-0.0041
0.808751462882756,-0.702766211977989,27.2359324724261,0.6532,0.7011,0.2861
-0.720167361480176,0.793295814227941,27.2359324724261,0.6532,0.7011,0.2861
0.646711784731847,-0.709788314130509,27.3048483549204,0.8358,0.1259,0.5344
-0.558431263758908,0.781146661673664,27.3048483549204,0.8358,0.1259,0.5344
0.73612771113373,-0.638007718620176,27.3737642374147,0.3235,0.9242,0.2029
-0.655693172816703,0.720419543904433,27.3737642374147,0.3235,0.9242,0.2029
0.884655771313993,-0.609445985520341,27.442680119909,0.6605,-0.2532,0.7069
-0.806553941720766,0.709585077408419,27.442680119909,0.6605,-0.2532,0.7069
1.01221786593251,-0.59451088823118,27.5115960024033,0.2601,0.2712,0.9267
-0.9349871752941,0.709807851727459,27.5115960024033,0.2601,0.2712,0.9267
0.903690288597455,-0.704461188874468,27.5805118848976,0.4367,0.521,0.7334
-0.814242778258089,0.806182611069185,27.5805118848976,0.4367,0.521,0.7334
0.776128230620435,-0.719396405672627,27.6494277673919,0.8849,-0.3258,0.3329
-0.685809566967046,0.805959959748111,27.6494277673919,0.8849,-0.3258,0.3329
0.931279117363189,-0.673731109878464,27.7183436498862,0.5671,0.8225,-0.0444
-0.845265264697622,0.778922996932616,27.7183436498862,0.5671,0.8225,-0.0444
0.92563619062437,-0.838823408449857,27.7872595323806,0.9498,0.3017,-0.0832
-0.820179342682503,0.942195793767903,27.7872595323806,0.9498,0.3017,-0.0832
0.745583881047083,-0.864046366133109,27.8561754148749,0.9697,0.2415,0.0369
-0.638408606885711,0.945994660217123,27.8561754148749,0.9697,0.2415,0.0369
0.751226890653405,-0.698953911411222,27.9250912973692,0.5339,0.8417,0.0806
-0.663494629616504,0.782721718101578,27.9250912973692,0.5339,0.8417,0.0806
0.941885915778021,-0.699372676167943,27.9940071798635,0.5696,0.7599,-0.3131
-0.85277200492644,0.805637093315007,27.9940071798635,0.5696,0.7599,-0.3131
0.9214239423854,-0.663788466176603,28.0629230623578,-0.33,0.944,0.0037
-0.836652277189579,0.767886825322347,28.0629230623578,-0.33,0.944,0.0037
0.733562182623578,-0.687110755814566,28.1318389448521,-0.0062,0.9974,0.0711
-0.647350956303316,0.768876716973998,28.1318389448521,-0.0062,0.9974,0.0711
0.754024275525198,-0.722694929164409,28.2007548273464,0.8204,0.5644,-0.0915
-0.663470807038143,0.806626962684366,28.2007548273464,0.8204,0.5644,-0.0915
0.934509086039329,-0.721176745193803,28.2696707098407,-0.158,0.9872,-0.0226
-0.842873638103322,0.826418271753996,28.2696707098407,-0.158,0.9872,-0.0226
1.00904113583235,-0.86988196826651,28.3385865923351,0.8765,0.4515,-0.1667
-0.89933629641658,0.982879890151779,28.3385865923351,0.8765,0.4515,-0.1667
0.8369839837728,-0.914788709118379,28.4075024748294,0.7244,0.685,-0.0781
-0.72318198258449,1.00716850203321,28.4075024748294,0.7244,0.685,-0.0781
0.762451970621272,-0.766083605554671,28.4764183573237,0.2696,0.9626,0.028
-0.666719346553523,0.850707006633394,28.4764183573237,0.2696,0.9626,0.028
0.907663956848541,-0.823797328965006,28.545334239818,0.8969,0.125,-0.4242
-0.804105907056994,0.925153818566338,28.545334239818,0.8969,0.125,-0.4242
0.775148585640732,-0.876451566809501,28.6142501223123,0.2545,0.9284,-0.2707
-0.666302798885905,0.961802089299283,28.6142501223123,0.2545,0.9284,-0.2707
0.64507531698342,-0.775693080458135,28.6831660048066,0.6453,0.6364,-0.4226
-0.549028856026324,0.846397799443215,28.6831660048066,0.6453,0.6364,-0.4226
0.777590568682231,-0.723038879255136,28.7520818873009,0.8504,0.3937,-0.349
-0.686831841199448,0.809749550992561,28.7520818873009,0.8504,0.3937,-0.349
0.919810643150619,-0.815179560441076,28.8209977697952,-0.2121,0.9721,0.0998
-0.817184695040041,0.918029688630154,28.8209977697952,-0.2121,0.9721,0.0998
0.989811982208409,-0.855515298741708,28.8899136522895,0.8596,0.3923,-0.3274
-0.881936907179331,0.966344389055687,28.8899136522895,0.8596,0.3923,-0.3274
0.817324358615163,-0.831277204472657,28.9588295347839,0.4289,0.8895,-0.1576
-0.713514862779362,0.921920516343199,28.9588295347839,0.4289,0.8895,-0.1576
0.747323175707869,-0.790941549039527,29.0277454172782,0.4814,0.8762,0.0237
-0.648762795920328,0.873605916633341,29.0277454172782,0.4814,0.8762,0.0237
0.917137262956532,-0.858043124778734,29.0966612997725,0.9999,-0.0113,-0.0046
-0.809471696231981,0.960278259715783,29.0966612997725,0.9999,-0.0113,-0.0046
0.876325069896211,-1.02762068846747,29.1655771822668,0.3793,0.9205,-0.0943
-0.748932950504322,1.1238546806166,29.1655771822668,0.3793,0.9205,-0.0943
0.691302277270459,-0.984540742946278,29.2344930647611,0.9701,0.1884,-0.1532
-0.570286840207444,1.05924134783662,29.2344930647611,0.9701,0.1884,-0.1532
0.732114553198283,-0.814963023107048,29.3034089472554,0.9599,0.2498,-0.1269
-0.630825686650778,0.895664781655545,29.3034089472554,0.9599,0.2498,-0.1269
0.920295971975338,-0.42285160838413,29.3723248297497,0.6088,0.7859,-0.1082
-0.863964976501655,0.528500405038229,29.3723248297497,0.6088,0.7859,-0.1082
0.966167029559918,-0.500608934575,29.441240712244,0.8325,-0.3235,-0.4498
-0.90033942263569,0.611127612232491,29.441240712244,0.8325,-0.3235,-0.4498
0.955047534362157,-0.67373944302419,29.5101565947384,0.6779,0.5883,-0.441
-0.868866616276748,0.781736165913779,29.5101565947384,0.6779,0.5883,-0.441
0.909176513419073,-0.595982236342319,29.5790724772327,0.8665,0.391,-0.3104
-0.832492192425005,0.699109081717482,29.5790724772327,0.8665,0.391,-0.3104
0.888988848303309,-0.443902318049125,29.647988359727,0.0571,0.7642,-0.6424
-0.830392432297813,0.545709491175986,29.647988359727,0.0571,0.7642,-0.6424
0.972570849222602,-0.295195099034874,29.7169042422213,0.0107,0.9609,0.2768
-0.930939236860745,0.407904817972177,29.7169042422213,0.0107,0.9609,0.2768
1.09583453590885,-0.412239081001721,29.7858201247156,-0.0895,0.3561,-0.9301
-1.03952933995719,0.538677214446522,29.7858201247156,-0.0895,0.3561,-0.9301
1.01225253498956,-0.560946300015972,29.8547360072099,-0.1497,0.7242,-0.6732
-0.938982535394262,0.67648188765033,29.8547360072099,-0.1497,0.7242,-0.6732
1.00851219492106,-0.408271775031294,29.9236518897042,-0.1325,0.875,-0.4656
-0.953285343594828,0.524432782422109,29.9236518897042,-0.1325,0.875,-0.4656
1.1767942766864,-0.474564133240068,29.9925677721985,-0.3732,0.0946,-0.9229
-1.11256843851337,0.6101207715065,29.9925677721985,-0.3732,0.0946,-0.9229
1.13100851291154,-0.647344293197941,30.0614836546929,0.5801,0.8108,0.0785
-1.04671293882357,0.77629048294671,30.0614836546929,0.5801,0.8108,0.0785
0.962726431146201,-0.581051934989167,30.1303995371872,-0.3251,0.9421,0.0825
-0.887429843905028,0.690602493862318,30.1303995371872,-0.3251,0.9421,0.0825
0.984203221447987,-0.397495899549998,30.1993154196815,-0.7332,0.6765,-0.0691
-0.930417882733117,0.51086351871912,30.1993154196815,-0.7332,0.6765,-0.0691
0.949426816296267,-0.38079012423767,30.2682313021758,0.0391,0.9969,-0.0684
-0.897855914748403,0.490170536212362,30.2682313021758,0.0391,0.9969,-0.0684
1.01782650943164,-0.55574555658832,30.3371471846701,-0.8629,0.4397,0.2491
-0.945131297689008,0.67197526524281,30.3371471846701,-0.8629,0.4397,0.2491
1.05260299745086,-0.572451175750152,30.4060630671644,-0.259,0.9554,0.1416
-0.977693366389396,0.692668102469312,30.4060630671644,-0.259,0.9554,0.1416
0.970215930637361,-0.415114731934451,30.4749789496587,-0.3229,0.9463,0.0172
-0.914449142308421,0.52670860906475,30.4749789496587,-0.3229,0.9463,0.0172
1.0571916173314,-0.270885812934547,30.543894832153,-0.5011,-0.02,-0.8652
-1.0178374382214,0.393751430168714,30.543894832153,-0.5011,-0.02,-0.8652
1.19981366825429,-0.386587787739645,30.6128107146473,-0.2386,0.9437,-0.2291
-1.14580900812238,0.525475663627581,30.6128107146473,-0.2386,0.9437,-0.2291
1.11283810106925,-0.530816670098053,30.6817265971417,-0.4563,-0.0655,-0.8874
-1.04242083520738,0.658432820241326,30.6817265971417,-0.4563,-0.0655,-0.8874
1.00966615342321,-0.399216612626258,30.750642479636,0.237,0.0444,-0.9705
-0.955499832106265,0.515577070873116,30.750642479636,0.237,0.0444,-0.9705
1.10444893707565,-0.468477360377071,30.8195583621303,-0.443,0.6316,-0.6363
-1.04144690838143,0.595539107713461,30.8195583621303,-0.443,0.6316,-0.6363
1.1945030001011,-0.590991435064425,30.8884742446246,-0.9121,-0.3236,-0.2515
-1.11641391859678,0.727824330407692,30.8884742446246,-0.9121,-0.3236,-0.2515
1.09972025309016,-0.521730806822611,30.9573901271189,-0.6894,0.7244,-0.001
-1.03046686460391,0.647862416565312,30.9573901271189,-0.6894,0.7244,-0.001
1.01790254477298,-0.388939954862224,31.0263060096132,-0.915,0.3425,-0.2133
-0.964891412703578,0.506344192061511,31.0263060096132,-0.915,0.3425,-0.2133
0.965619573092055,-0.293493492096558,31.0952218921075,-0.0289,0.9473,-0.319
-0.924237338265902,0.405394785852849,31.0952218921075,-0.0289,0.9473,-0.319
1.06440006521137,-0.414988296929845,31.1641377746018,0.3975,0.6645,0.6328
-1.00799008488589,0.537697660569995,31.1641377746018,0.3975,0.6645,0.6328
1.11668311975979,-0.510434603545015,31.2330536570962,-0.4168,0.7597,-0.4992
-1.04864426003924,0.638646921498401,31.2330536570962,-0.4168,0.7597,-0.4992
1.09241386488298,-0.349289933170925,31.3019695395905,-0.1253,0.9802,-0.1532
-1.04356115527253,0.475764253395927,31.3019695395905,-0.1253,0.9802,-0.1532
1.26393939139961,-0.369912474815873,31.3708854220848,0.0362,0.987,-0.1566
-1.21145449406357,0.516484300796445,31.3708854220848,0.0362,0.987,-0.1566
1.25654680838258,-0.556925199294154,31.4398013045791,-0.3941,0.3691,-0.8417
-1.18204432756663,0.701317878663334,31.4398013045791,-0.3941,0.3691,-0.8417
1.08502128186595,-0.536302657649206,31.5087171870734,-0.1462,0.9852,-0.0893
-1.01415098877559,0.660597831262816,31.5087171870734,-0.1462,0.9852,-0.0893
1.12949806513564,-0.349711381876428,31.5776330695677,-0.4705,0.5457,-0.6934
-1.0803364944733,0.48055903744307,31.5776330695677,-0.4705,0.5457,-0.6934
1.12289906700438,-0.388929665399445,31.646548952062,-0.3406,0.5877,-0.7339
-1.0691554850276,0.518724539753445,31.646548952062,-0.3406,0.5877,-0.7339
1.09901996160908,-0.573185774018429,31.7154648345563,0.0432,0.9927,-0.113
-1.02369930216435,0.698875200805225,31.7154648345563,0.0432,0.9927,-0.113
1.10561895974034,-0.533967490495412,31.7843807170507,-0.9682,0.1797,0.1743
-1.03488031161006,0.66070969849485,31.7843807170507,-0.9682,0.1797,0.1743
1.12352950724881,-0.360100061025132,31.853296599545,-0.4574,0.8784,0.1384
-1.07318368126756,0.490170780310359,31.853296599545,-0.4574,0.8784,0.1384
1.27582937642716,-0.284540284546235,31.9222124820393,-0.7334,0.6638,-0.1466
-1.23333610944706,0.43311177820297,31.9222124820393,-0.7334,0.6638,-0.1466
1.32272106382297,-0.455580409328225,31.9911283645336,-0.9392,-0.0931,-0.3305
-1.25971581670933,0.608490413381325,31.9911283645336,-0.9392,-0.0931,-0.3305
1.17042115800313,-0.531140066298123,32.0600442470279,-0.4589,0.8859,0.0679
-1.09956336624754,0.665549292490748,32.0600442470279,-0.4589,0.8859,0.0679
1.22957384694008,-0.381403256782444,32.1289601295222,-0.7986,0.0681,0.598
-1.17597306011527,0.523839337246078,32.1289601295222,-0.7986,0.0681,0.598
1.32871846690438,-0.508936322912713,32.1978760120165,-0.5668,0.4893,0.6628
-1.25937481929268,0.662181251323362,32.1978760120165,-0.5668,0.4893,0.6628
1.22599531736982,-0.649079341236338,32.2667918945108,-0.3904,0.8345,0.3889
-1.14083127032606,0.789222732869965,32.2667918945108,-0.3904,0.8345,0.3889
1.12685073404701,-0.521546394615068,32.3357077770052,-0.6865,-0.0867,0.722
-1.05742953343095,0.650880941790647,32.3357077770052,-0.6865,-0.0867,0.722
1.21152425822664,-0.366019123930584,32.4046236594995,-0.1517,0.9873,-0.0479
-1.15986506369484,0.506432681977256,32.4046236594995,-0.1517,0.9873,-0.0479
1.23652797367462,-0.309912063993245,32.4735395419938,-0.1665,0.7196,-0.6741
-1.19131521987501,0.453668341393311,32.4735395419938,-0.1665,0.7196,-0.6741
1.23850714716605,-0.491354170865848,32.5424554244881,0.0031,0.357,-0.9341
-1.17186870929216,0.634076180746897,32.5424554244881,0.0031,0.357,-0.9341
1.21350343171807,-0.547461230803186,32.6113713069824,0.0515,0.9643,-0.2597
-1.14041855311199,0.686840521330842,32.6113713069824,0.0515,0.9643,-0.2597
1.07233902751857,-0.52914453998487,32.6802871894767,0.0613,-0.1262,-0.9901
-1.00240207619451,0.651993107153918,32.6802871894767,0.0613,-0.1262,-0.9901
1.19105921874243,-0.612153395306374,32.749203071971,0.1504,0.5638,-0.8121
-1.11049689274517,0.748432023058725,32.749203071971,0.1504,0.5638,-0.8121
1.07681784122838,-0.763763500830035,32.8181189544653,0.2152,0.6341,-0.7427
-0.97916237668001,0.885501207499041,32.8181189544653,0.2152,0.6341,-0.7427
0.958097650004526,-0.680754645508531,32.8870348369596,0.1787,-0.1776,-0.9677
-0.871067560129349,0.789062291594234,32.8870348369596,0.1787,-0.1776,-0.9677
1.14017246593071,-0.616321657921927,27.059422,-0.015,0.8409,-0.5409
-1.05947381786386,0.746566050226719,27.059422,-0.015,0.8409,-0.5409
1.16324094361944,-0.782408541056787,27.1283378824943,0.0089,0.1227,-0.9924
-1.06278130885498,0.914214694467201,27.1283378824943,0.0089,0.1227,-0.9924
0.981021787576524,-0.825243323133237,27.1972537649886,0.1388,0.258,-0.9561
-0.876780508523579,0.935246614508153,27.1972537649886,0.1388,0.258,-0.9561
0.957953153737298,-0.659156357130875,27.2661696474829,0.5763,0.8132,0.0815
-0.873472872252205,0.767597869551997,27.2661696474829,0.5763,0.8132,0.0815
1.08696310268474,-0.577315824748721,27.3350855299772,-0.683,0.6969,-0.2189
-1.0112393062892,0.701553571382162,27.3350855299772,-0.683,0.6969,-0.2189
1.27267468248199,-0.5769239856902,27.4040014124716,0.1457,0.9678,0.2053
-1.19569946537364,0.723080162361349,27.4040014124716,0.1457,0.9678,0.2053
1.26639450280769,-0.764291201273769,27.4729172949659,-0.2759,0.9437,-0.1827
-1.1673520960465,0.908397028254641,27.4729172949659,-0.2759,0.9437,-0.1827
1.08068295965193,-0.764683159841288,27.5418331774602,-0.6394,0.4846,-0.5969
-0.98289195924436,0.88687056027342,27.5418331774602,-0.6394,0.4846,-0.5969
1.20989249338189,-0.672903648185953,27.6107490599545,0.037,0.9989,0.0279
-1.12202947537118,0.810980284397889,27.6107490599545,0.037,0.9989,0.0279
1.27618425232385,-0.848889889843345,27.6796649424488,-0.7993,0.4477,-0.4008
-1.1670900082513,0.993559864123751,27.6796649424488,-0.7993,0.4477,-0.4008
1.09814511462748,-0.913957911919934,27.7485808249431,-0.4693,0.8447,-0.2574
-0.982616289437462,1.03716295020281,27.7485808249431,-0.4693,0.8447,-0.2574
1.03185335568552,-0.737971670262542,27.8174967074374,-0.183,0.9598,-0.2126
-0.937555756557345,0.854583370476951,27.8174967074374,-0.183,0.9598,-0.2126
1.21673239712283,-0.663282778032072,27.8864125899317,-0.8185,0.3015,-0.489
-1.12995693729799,0.802233812360426,27.8864125899317,-0.8185,0.3015,-0.489
1.25717643666478,-0.69761642065939,27.9553284724261,-0.1503,0.9886,0.0085
-1.16606668488347,0.841100320820083,27.9553284724261,-0.1503,0.9886,0.0085
1.13421922331189,-0.842466460057554,28.0242443549204,-0.9311,0.2181,-0.2923
-1.02687498557986,0.970428125541766,28.0242443549204,-0.9311,0.2181,-0.2923
1.09377511048695,-0.808132578412239,28.0931602374147,-0.8736,0.067,-0.482
-0.990765193429801,0.931561371086179,28.0931602374147,-0.8736,0.067,-0.482
1.2077013128773,-0.669275840885557,28.162076119909,-0.413,0.849,-0.3297
-1.12028172073165,0.807119246774075,28.162076119909,-0.413,0.849,-0.3297
1.39043001516168,-0.712382427938751,28.2309920024033,-0.6953,-0.4039,-0.5945
-1.29664662671607,0.87148831095101,28.2309920024033,-0.6953,-0.4039,-0.5945
1.34194085457764,-0.892081342039915,28.2999078848976,-0.1096,0.445,-0.8888
-1.22729014294867,1.04420940573304,28.2999078848976,-0.1096,0.445,-0.8888
1.15921199614277,-0.848974672119219,28.3688237673919,0.3697,0.3876,-0.8444
-1.050925091684,0.979840240840432,28.3688237673919,0.3697,0.3876,-0.8444
1.28713108936566,-0.750048621593287,28.4377396498862,0.0916,-0.3626,-0.9274
-1.18962454226137,0.896701078629357,28.4377396498862,0.0916,-0.3626,-0.9274
1.28044021229857,-0.901614023229773,28.5066555323806,-0.3953,0.8012,-0.4493
-1.1650942920115,1.04641782996946,28.5066555323806,-0.3953,0.8012,-0.4493
1.12423743076512,-0.962295807489929,28.5755714148749,-0.8164,0.0119,-0.5774
-1.00282196444165,1.08824222004086,28.5755714148749,-0.8164,0.0119,-0.5774
1.13092823454922,-0.810730166835446,28.6444872973692,-0.7477,0.3538,-0.5619
-1.02735217012694,0.93852522270482,28.6444872973692,-0.7477,0.3538,-0.5619
1.2743290670179,-0.727861413716097,28.7134031798635,-0.4452,0.7885,-0.4243
-1.17953027085619,0.873158146476017,28.7134031798635,-0.4452,0.7885,-0.4243
1.37341056302122,-0.692937444011869,28.7823190623578,-0.7716,-0.2099,-0.6005
-1.28204078694041,0.850170745528901,28.7823190623578,-0.7716,-0.2099,-0.6005
1.29579407106522,-0.845612009257712,28.8512349448521,-0.0474,0.9638,0.2624
-1.18694962357218,0.992619028585735,28.8512349448521,-0.0474,0.9638,0.2624
1.19671265792941,-0.880535822811446,28.9201508273464,-0.1332,0.9431,-0.3046
-1.08443920820364,1.0156062842526,28.9201508273464,-0.1332,0.9431,-0.3046
1.33311488206864,-0.768320054533273,28.9890667098407,-0.1431,0.63,-0.7633
-1.23313082392606,0.920271354587513,28.9890667098407,-0.1431,0.63,-0.7633
1.44396357143648,-0.912884043294995,29.0579825923351,0.0636,0.9938,0.0912
-1.32614506309216,1.07690637651306,29.0579825923351,0.0636,0.9938,0.0912
1.29572640535549,-1.03110715194123,29.1268984748294,-0.3314,0.2144,-0.9188
-1.16499228020908,1.17681003708035,29.1268984748294,-0.3314,0.2144,-0.9188
1.18487783549665,-0.886543126538014,29.1958143573237,-0.1725,0.7176,-0.6747
-1.07197816404095,1.02017499287251,29.1958143573237,-0.1725,0.7176,-0.6747
1.34941371207264,-0.793798697488282,29.264730239818,-0.0284,0.8135,-0.5809
-1.24630904908861,0.947495378681929,29.264730239818,-0.0284,0.8135,-0.5809
1.30345268619751,-0.833850881353982,29.3336461223123,-0.2485,0.063,-0.9666
-1.1959426464389,0.981843869420724,29.3336461223123,-0.2485,0.063,-0.9666
1.15718441733523,-0.938820258199976,29.4025620048066,-0.184,0.9507,-0.2497
-1.03830906659406,1.06881875692688,29.4025620048066,-0.184,0.9507,-0.2497
1.20314559936085,-0.898768157201778,29.4714778873009,-0.4354,0.4209,-0.7958
-1.08867561452403,1.03447036690376,29.4714778873009,-0.4354,0.4209,-0.7958
1.32998496667417,-0.788908308867093,29.5403937697952,-0.3152,0.4464,-0.8375
-1.22759317352541,0.940346389205933,29.5403937697952,-0.3152,0.4464,-0.8375
1.48013357514421,-0.797604063595292,29.6093096522895,-0.0678,0.9327,-0.3542
-1.37566643736083,0.966700313257346,29.6093096522895,-0.0678,0.9327,-0.3542
1.40427462996393,-0.948642305250379,29.6782255347839,-0.9401,0.3157,0.1285
-1.28251364128267,1.10773111340024,29.6782255347839,-0.9401,0.3157,0.1285
1.25412598485239,-0.939946431013181,29.7471414172782,-0.1314,0.9825,0.1317
-1.13444035516496,1.08137706635087,29.7471414172782,-0.1314,0.9825,0.1317
1.39331685862731,-0.854441839231643,29.8160572997725,-0.4702,0.8824,-0.019
-1.28274896777985,1.0128957551616,29.8160572997725,-0.4702,0.8824,-0.019
1.41068769540638,-1.01526111244666,29.8849731822668,-0.9596,0.2702,-0.0784
-1.28102025709674,1.1746412223846,29.8849731822668,-0.9596,0.2702,-0.0784
1.24607132704588,-1.07745119451622,29.9538890647611,-0.113,0.9933,0.022
-1.11021513955807,1.21697048959553,29.9538890647611,-0.113,0.9933,0.022
1.22870045362532,-0.916631801792199,30.0228049472554,-0.9733,0.1985,0.1156
-1.11194382795888,1.05522489937456,30.0228049472554,-0.9733,0.1985,0.1156
1.1813351430953,-0.617783397565155,30.0917208297497,-0.8311,0.5551,0.0341
-1.10017637158474,0.752875154342191,30.0917208297497,-0.8311,0.5551,0.0341
1.20045690049155,-0.554823365130003,30.160636712244,-0.5422,0.8391,-0.0441
-1.12659438438183,0.692611600762857,30.160636712244,-0.5422,0.8391,-0.0441
1.03862926286539,-0.641967147489121,30.2295525947384,-0.9699,-0.158,0.1854
-0.95561374279059,0.760049300193998,30.2295525947384,-0.9699,-0.158,0.1854
1.01950742260164,-0.704927336074767,30.2984684772327,-0.5378,0.8027,0.2578
-0.929195629277829,0.820312999053588,30.2984684772327,-0.5378,0.8027,0.2578
1.18144512336033,-0.620112208882931,27.601656,-0.8937,0.3288,0.3052
-1.10001076198672,0.755200671762797,27.601656,-0.8937,0.3288,0.3052
1.30378685687153,-0.747556954670101,27.6705718824943,-0.9759,0.1561,0.1522
-1.20645796728907,0.896192357583627,27.6705718824943,-0.9759,0.1561,0.1522
1.15967457732389,-0.865881769969334,27.7394877649886,0.139,0.9903,0.008
-1.04938924592684,0.996683789067356,27.7394877649886,0.139,0.9903,0.008
1.0373326510207,-0.738436821805664,27.8084036474829,-0.8553,0.2711,-0.4416
-0.942941873061937,0.855691879532887,27.8084036474829,-0.8553,0.2711,-0.4416
1.18662050280647,-0.662543303296893,27.8773195299772,-0.4387,0.8741,-0.2083
-1.10014271500863,0.79794602138095,27.8773195299772,-0.4387,0.8741,-0.2083
1.09025688918907,-0.727727077825997,27.9462354124716,-0.4043,0.806,-0.4323
-0.996760151937112,0.851302521866167,27.9462354124716,-0.4043,0.806,-0.4323
0.954176328603125,-0.792799518616215,28.0151512949659,-0.6084,-0.1165,-0.785
-0.853951302843034,0.899861497763586,28.0151512949659,-0.6084,-0.1165,-0.785
1.05053990557903,-0.727615624578113,28.0840671774602,-0.3433,0.8829,-0.3203
-0.957333843632262,0.846504874280404,28.0840671774602,-0.3433,0.8829,-0.3203
1.16323090543438,-0.640928418149669,28.1529830599545,-0.7828,0.1122,-0.612
-1.07946730995627,0.773721980614041,28.1529830599545,-0.7828,0.1122,-0.612
1.22680441591013,-0.538510734598852,28.2218989424488,-0.7517,0.4029,-0.5222
-1.15468283827596,0.679522206528782,28.2218989424488,-0.7517,0.4029,-0.5222
1.15700454220234,-0.667851099103297,28.2908148249431,-0.3484,0.8996,-0.2635
-1.07010732697465,0.799721770371112,28.2908148249431,-0.3484,0.8996,-0.2635
1.0934309950851,-0.770268663145116,28.3597307074374,-0.9502,0.012,-0.3114
-0.994891776372657,0.893921421458405,28.3597307074374,-0.9502,0.012,-0.3114
1.11497348658018,-0.619480940391519,28.4286465899317,-0.5085,0.8575,-0.0782
-1.03407809192442,0.746729543467433,28.4286465899317,-0.5085,0.8575,-0.0782
1.25653037965107,-0.627552664145854,28.4975624724261,-0.736,0.6018,-0.31
-1.17369331650409,0.771449894715309,28.4975624724261,-0.736,0.6018,-0.31
1.29879521501015,-0.803305329727946,28.5664783549204,-0.1402,0.989,-0.046
-1.19492237829694,0.950962130238507,28.5664783549204,-0.1402,0.989,-0.046
1.15723832193926,-0.795233605973612,28.6353942374147,-0.0196,0.6457,-0.7633
-1.05530715371727,0.926241778990631,28.6353942374147,-0.0196,0.6457,-0.7633
1.0653810035833,-0.647026609101943,28.704310119909,0.0604,0.7166,0.6948
-0.981581491992391,0.768230362755935,28.704310119909,0.0604,0.7166,0.6948
1.03471449583291,-0.731565702175271,28.7732260024033,0.0454,0.9704,0.2372
-0.941152868220699,0.848559805273561,28.7732260024033,0.0454,0.9704,0.2372
1.18690980152056,-0.841850221919739,28.8421418848976,-0.0578,0.9853,0.161
-1.07927010971766,0.976034171206066,28.8421418848976,-0.0578,0.9853,0.161
1.21757630927095,-0.757311128846411,28.9110577673919,0.126,0.4971,0.8585
-1.11969873348936,0.89570472868844,28.9110577673919,0.126,0.4971,0.8585
1.07961267491153,-0.646847090338411,28.9799736498862,0.109,0.9922,-0.0604
-0.995734904269221,0.769731567839641,28.9799736498862,0.109,0.9922,-0.0604
1.09436020089703,-0.506013583105377,29.0488895323806,0.6187,0.485,0.618
-1.02699904426849,0.631622481127882,29.0488895323806,0.6187,0.485,0.618
1.23103163180633,-0.601906319432064,29.1178054148749,0.3055,0.1736,0.9362
-1.1513992483767,0.742973664888316,29.1178054148749,0.3055,0.1736,0.9362
1.21628410582084,-0.742739826665098,29.1867212973692,0.0753,0.8417,0.5346
-1.12013510837744,0.881082751600075,29.1867212973692,0.0753,0.8417,0.5346
1.16763127206065,-0.613322481097876,29.2556371798635,0.5707,-0.1534,0.8067
-1.08709468606853,0.746828224450292,29.2556371798635,0.5707,-0.1534,0.8067
1.23834150996072,-0.72179777881125,29.3245530623578,0.49,0.6855,0.5384
-1.14450974244558,0.862890015144351,29.3245530623578,0.49,0.6855,0.5384
1.22110690143064,-0.875135619972124,29.3934689448521,0.4181,0.5814,0.698
-1.10930027081928,1.01312256278587,29.3934689448521,0.4181,0.5814,0.698
1.15039654402156,-0.766660358900246,29.4623848273464,-0.5691,0.5568,0.6051
-1.05188509144427,0.897060794374098,29.4623848273464,-0.5691,0.5568,0.6051
1.1707123346028,-0.60224587488173,29.5313007098407,0.1909,0.9647,-0.1816
-1.09146136211595,0.736192610130794,29.5313007098407,0.1909,0.9647,-0.1816
1.14125780923565,-0.527675719318607,29.6002165923351,-0.54,0.4341,0.7211
-1.07101262178085,0.658667606525375,29.6002165923351,-0.54,0.4341,0.7211
1.14796623654529,-0.701508649710568,29.6691324748294,-0.6424,0.5973,0.4802
-1.05716027284151,0.832077534483632,29.6691324748294,-0.6424,0.5973,0.4802
1.17742079855394,-0.776078924782689,29.7380483573237,-0.2921,0.9341,0.2051
-1.0776090354589,0.909602661087016,29.7380483573237,-0.2921,0.9341,0.2051
1.19552228968877,-0.595083923580242,29.806964239818,-0.344,0.2006,0.9173
-1.11694313421663,0.732008508265208,29.806964239818,-0.344,0.2006,0.9173
1.3608452240851,-0.602321283880511,29.8758801223123,0.0473,0.9739,0.2218
-1.28025679733111,0.758704939893105,29.8758801223123,0.0473,0.9739,0.2218
1.35036271020169,-0.79199255034472,29.9447960048066,-0.1932,0.7341,0.651
-1.24746455823031,0.945813842605427,29.9447960048066,-0.1932,0.7341,0.651
1.18503973916385,-0.784755070535452,30.0137118873009,0.17,0.919,0.3557
-1.08415087283354,0.919117287979565,30.0137118873009,0.17,0.919,0.3557
1.2225692809462,-0.606233750453829,30.0826277697952,-0.4621,0.7816,-0.419
-1.14248535119932,0.746272221912086,30.0826277697952,-0.4621,0.7816,-0.419
1.20793201604828,-0.683972954376075,30.1515436522895,0.5952,0.5717,0.5646
-1.11877641590382,0.821740889167512,30.1515436522895,0.5952,0.5717,0.5646
1.17845771377865,-0.854192600185539,30.2204595347839,0.291,0.8894,0.3527
-1.06942056569472,0.987292882099998,30.2204595347839,0.291,0.8894,0.3527
1.19309497867656,-0.776453396263293,30.2893754172782,0.1328,0.8893,0.4376
-1.09312950099021,0.911824214844572,30.2893754172782,0.1328,0.8893,0.4376
1.20876775860732,-0.613935489994837,30.3582912997725,0.453,0.2669,0.8506
-1.12787139029319,0.752291437597073,30.3582912997725,0.453,0.2669,0.8506
1.27532464022579,-0.507458858469977,30.4272071822668,0.1173,0.9918,0.0508
-1.20652843699938,0.65441314299037,30.4272071822668,0.1173,0.9918,0.0508
1.31157780466975,-0.664618481618166,30.4961230647611,0.5005,0.569,0.6525
-1.22398198625745,0.814752822104984,30.4961230647611,0.5005,0.569,0.6525
1.24502092305128,-0.771095113143025,30.5650389472554,0.3655,0.6405,0.6754
-1.14532493955126,0.912631116711687,30.5650389472554,0.3655,0.6405,0.6754
1.28043240639734,-0.65003036671415,30.6339548297497,-0.0866,0.9245,0.3712
-1.19477574985265,0.796591195386344,30.6339548297497,-0.0866,0.9245,0.3712
1.42289076153202,-0.773275428811069,30.702870712244,0.1339,-0.2292,0.9641
-1.32169461340002,0.935786491121499,30.702870712244,0.1339,-0.2292,0.9641
1.29745914647182,-0.915149569129718,30.7717865947384,0.1248,0.6736,0.7285
-1.18039698603727,1.06186718849196,30.7717865947384,0.1248,0.6736,0.7285
1.15500087420464,-0.791904350882303,30.8407024772327,-0.5807,0.2514,0.7744
-1.05347822320558,0.922671747476552,30.8407024772327,-0.5807,0.2514,0.7744
1.2612274058675,-0.631775830912,28.317942,-0.9243,-0.3813,-0.0168
-1.17785914928655,0.776197844803619,28.317942,-0.9243,-0.3813,-0.0168
1.33659306333921,-0.62529152976919,28.3868578824943,-0.0618,0.6915,0.7198
-1.25346339632458,0.778652700658025,28.3868578824943,-0.0618,0.6915,0.7198
1.32269697695182,-0.814333400359259,28.4557737649886,0.6514,-0.1585,0.742
-1.21735571165044,0.964733772131056,28.4557737649886,0.6514,-0.1585,0.742
1.24733128283862,-0.82081758199307,28.5246896474829,0.6247,0.4588,0.6318
-1.14175144233012,0.962278793278683,28.5246896474829,0.6247,0.4588,0.6318
1.26367568047571,-0.640553368103371,28.5936055299772,0.3844,0.772,0.5062
-1.17925448560358,0.785202968026845,28.5936055299772,0.3844,0.772,0.5062
1.44484901614341,-0.58750943156302,28.6625214124716,0.6528,-0.1825,0.7352
-1.36542154832998,0.753909813560104,28.6625214124716,0.6528,-0.1825,0.7352
1.49981793139484,-0.768653064652604,28.7314372949659,0.2888,0.7982,-0.5286
-1.39862973588166,0.940274546630352,28.7314372949659,0.2888,0.7982,-0.5286
1.31864466901013,-0.821697240210952,28.8003531774602,-0.0047,0.9785,0.2061
-1.21246271771984,0.971567947093025,28.8003531774602,-0.0047,0.9785,0.2061
1.37869372683653,-0.665951595120033,28.8692690599545,-0.3194,0.8015,0.5056
-1.29047161552353,0.823996922924731,28.8692690599545,-0.3194,0.8015,0.5056
1.46330459275551,-0.795553472999359,28.9381849424488,-0.0066,0.9921,-0.1252
-1.35919703638505,0.962678074884227,28.9381849424488,-0.0066,0.9921,-0.1252
1.36359033629997,-0.933055081693712,29.0071008249431,-0.5203,0.1799,0.8348
-1.24395306670993,1.08745168101764,29.0071008249431,-0.5203,0.1799,0.8348
1.278979470381,-0.803453203814386,29.0760167074374,-0.169,0.8652,0.472
-1.17522764584841,0.948770529058142,29.0760167074374,-0.169,0.8652,0.472
1.33168121302137,-0.658169357726011,29.1449325899317,-0.1777,0.9046,0.3874
-1.2447059784042,0.810721150512533,29.1449325899317,-0.1777,0.9046,0.3874
1.39076213744393,-0.551017507239989,29.2138484724261,-0.1842,0.3811,0.906
-1.31601898834537,0.711290122627197,29.2138484724261,-0.1842,0.3811,0.906
1.45186506389703,-0.706794771400609,29.2827643549204,0.0479,0.9989,-0.0009
-1.3583117928787,0.873189604822803,29.2827643549204,0.0479,0.9989,-0.0009
1.39278398332397,-0.813946539019128,29.3516802374147,-0.0301,0.5921,0.8053
-1.28699863765728,0.972620531992465,29.3516802374147,-0.0301,0.5921,0.8053
1.4012219960537,-0.641955226417841,29.420596119909,0.4926,0.7475,0.4456
-1.31567426273594,0.802826774169956,29.420596119909,0.4926,0.7475,0.4456
1.58460086036072,-0.671023688275676,29.4895120024033,-0.0405,0.99,0.1354
-1.49434141694603,0.853332529839769,29.4895120024033,-0.0405,0.99,0.1354
1.55946183171917,-0.858221467414079,29.5584278848976,0.739,0.0799,0.669
-1.44728697010628,1.03625562381097,29.5584278848976,0.739,0.0799,0.669
1.37608293077065,-0.829152886047245,29.6273437673919,0.3477,0.8993,0.2652
-1.2686197936139,0.985749745143188,29.6273437673919,0.3477,0.8993,0.2652
1.41573999604723,-0.643010649089582,29.472359,0.3178,0.5363,0.7819
-1.32996626838939,0.805588080967445,29.472359,0.3178,0.5363,0.7819
1.41105265528632,-0.693974263758351,29.5412748824943,0.2452,0.0339,0.9689
-1.31929750037719,0.855642437147677,29.5412748824943,0.2452,0.0339,0.9689
1.40385927460124,-0.87682828719886,29.6101907649886,0.2568,0.899,0.3548
-1.29057590964943,1.03636988066451,29.6101907649886,0.2568,0.899,0.3548
1.40854673487115,-0.825864635888594,29.6791066474829,0.8975,-0.0752,0.4345
-1.30124480065959,0.986315502201986,29.6791066474829,0.8975,-0.0752,0.4345
1.40202729233669,-0.656104727785702,29.7480225299772,0.8349,0.5082,0.2112
-1.3148041593644,0.816972438211822,29.7480225299772,0.8349,0.5082,0.2112
1.52141797379585,-0.548356198458741,29.8169384124716,0.6867,0.6815,0.253
-1.44607592501077,0.724066012516437,29.8169384124716,0.6867,0.6815,0.253
1.59086879888066,-0.70405863982666,29.8858542949659,0.8967,-0.1591,0.4131
-1.49666712694255,0.886876324351984,29.8858542949659,0.8967,-0.1591,0.4131
1.47147808078,-0.811807049644622,29.9547701774602,0.0122,0.9792,0.2026
-1.3653953390139,0.979782627049403,29.9547701774602,0.0122,0.9792,0.2026
1.49131156059094,-0.657542434903693,30.0236860599545,-0.4001,0.4461,0.8006
-1.40329489017827,0.828936472626703,30.0236860599545,-0.4001,0.4461,0.8006
1.59184872341513,-0.769041327863075,30.0926019424488,-0.6418,0.3104,0.7013
-1.48997164323422,0.951520585461867,30.0926019424488,-0.6418,0.3104,0.7013
1.52709897084963,-0.922646887153045,30.1615178249431,-0.4247,0.874,0.2363
-1.40754744684924,1.09641175203999,30.1615178249431,-0.4247,0.874,0.2363
1.42656188130843,-0.81114823321166,30.2304337074374,-0.8656,-0.3367,0.3707
-1.32087073835787,0.973827885200752,30.2304337074374,-0.8656,-0.3367,0.3707
1.4763323693948,-0.643906306746854,30.2993495899317,-0.7864,0.5527,0.2758
-1.39002955604784,0.813627943291459,30.2993495899317,-0.7864,0.5527,0.2758
1.4455238808811,-0.590077282727214,30.3682654724261,-0.7724,0.3709,0.5156
-1.36578866714615,0.756539362150726,30.3682654724261,-0.7724,0.3709,0.5156
1.44359604428006,-0.772159006254922,30.4371813549204,-0.5485,-0.2683,0.7919
-1.34238696603093,0.937121285337116,30.4371813549204,-0.5485,-0.2683,0.7919
1.47440465230276,-0.825987993633067,30.5060972374147,-0.111,0.783,0.6121
-1.36662797793059,0.994209844195558,30.5060972374147,-0.111,0.783,0.6121
1.48516244125815,-0.641518932791272,30.575013119909,-0.0728,-0.1201,0.9901
-1.39907966001364,0.812299281662638,30.575013119909,-0.0728,-0.1201,0.9901
1.64468433795668,-0.620204018046121,30.6439290024033,-0.3169,0.2308,0.92
-1.56000225399902,0.809958371176275,30.6439290024033,-0.3169,0.2308,0.92
1.65520051661314,-0.808497105733524,30.7128448848976,-0.3275,0.8795,-0.3451
-1.54822461678366,0.998176765989359,30.7128448848976,-0.3275,0.8795,-0.3451
1.4956785370471,-0.82981217662917,30.7817607673919,0.3074,0.6825,0.663
-1.3873019220826,1.00051782175598,30.7817607673919,0.3074,0.6825,0.663
1.52388155162963,-0.654103305116592,30.8506766498862,-0.015,0.9302,-0.3667
-1.4360431473781,0.829364935375237,30.8506766498862,-0.015,0.9302,-0.3667
1.53431287085604,-0.746426370608493,30.9195925323806,0.1773,0.8844,0.4318
-1.43550659806674,0.922273885199576,30.9195925323806,0.1773,0.8844,0.4318
1.50347901779468,-0.911028398435129,30.9885084148749,0.0133,0.5589,0.8291
-1.38546362806071,1.08208707367983,30.9885084148749,0.0133,0.5589,0.8291
1.49304774479428,-0.818705057283735,31.0574242973692,-0.0463,0.9981,0.0411
-1.38600025580546,0.989177855577272,31.0574242973692,-0.0463,0.9981,0.0411
1.30511819771979,-0.72829466712101,30.12179,0.268,0.2405,0.9329
-1.21005313429804,0.877221776035986,30.12179,0.268,0.2405,0.9329
1.46201239676923,-0.690063674926637,30.1907058824943,0.2299,0.8877,0.3989
-1.37036264601987,0.857772896607016,30.1907058824943,0.2299,0.8877,0.3989
1.44866257177258,-0.85920628384991,30.2596217649886,0.1316,0.9187,0.3724
-1.33714570351176,1.02415821660618,30.2596217649886,0.1316,0.9187,0.3724
1.29176837272314,-0.897437276044282,30.3285376474829,0.5126,0.3269,0.794
-1.17683619178994,1.04360709603515,30.3285376474829,0.5126,0.3269,0.794
1.4056029873025,-0.791200438148632,30.3974535299772,0.0884,0.996,0.0149
-1.30241231998904,0.951546131294267,30.3974535299772,0.0884,0.996,0.0149
1.48746217989825,-0.962645507640368,30.4663694124716,0.502,0.5998,0.6231
-1.36346740945025,1.13145337216115,30.4663694124716,0.502,0.5998,0.6231
1.31811209458162,-1.04389859332535,30.5352852949659,0.6121,0.3704,0.6987
-1.18571204028484,1.19215381748857,30.5352852949659,0.6121,0.3704,0.6987
1.23625274583539,-0.87245344096611,30.6042011774602,0.1889,0.9128,0.3621
-1.12465680554337,1.01224647590601,30.6042011774602,0.1889,0.9128,0.3621
1.40330789680302,-0.776296240801834,30.6731170599545,0.6688,-0.2911,0.6841
-1.30189210023299,0.936475235157722,30.6731170599545,0.6688,-0.2911,0.6841
1.40993436773728,-0.79539176366031,30.7420329424488,0.5005,0.6292,0.5947
-1.30621881950699,0.956219313019329,30.7420329424488,0.5005,0.6292,0.5947
1.29090695199512,-0.943096897354972,30.8109488249431,-0.3834,0.1494,0.9114
-1.17059253066066,1.08884601467397,30.8109488249431,-0.3834,0.1494,0.9114
1.28428063721135,-0.924001457363999,30.8798647074374,-0.9328,-0.3538,0.0692
-1.16626595666691,1.06910203752803,30.8798647074374,-0.9328,-0.3538,0.0692
1.37863819932277,-0.776737998369533,30.9487805899317,-0.5291,0.7311,0.4308
-1.27734265099173,0.934002652405465,30.9487805899317,-0.5291,0.7311,0.4308
1.56082456526792,-0.782411317532367,31.0176964724261,0.1714,-0.2449,0.9543
-1.45758648366019,0.961136013266414,31.0176964724261,0.1714,-0.2449,0.9543
1.53877810061025,-0.962681632575814,31.0866123549204,0.2072,0.3747,0.9037
-1.41442049661878,1.13754500014777,31.0866123549204,0.2072,0.3747,0.9037
1.35659177130659,-0.957008432921978,31.1555282374147,0.0914,0.6988,0.7094
-1.23417668623262,1.11041176228479,31.1555282374147,0.0914,0.6988,0.7094
1.44728237421483,-0.822022713589919,31.224444119909,0.2267,-0.2017,0.9528
-1.34016315689961,0.987071590746849,31.224444119909,0.2267,-0.2017,0.9528
1.48232773864562,-0.966479888236314,31.2933600024033,0.2278,0.7605,0.6081
-1.35791635261324,1.13465504821028,31.2933600024033,0.2278,0.7605,0.6081
1.36751784970269,-1.07810702012269,31.3622758848976,0.2967,0.7058,0.6433
-1.23073566001129,1.23195355077611,31.3622758848976,0.2967,0.7058,0.6433
1.3324724852719,-0.93364984547629,31.4311917673919,0.1524,0.5863,0.7957
-1.21298246429766,1.08437009331268,31.4311917673919,0.1524,0.5863,0.7957
1.41636999503223,-0.799631911825314,31.5001076498862,-0.0797,0.9964,0.028
-1.31210910091417,0.961189296931262,31.5001076498862,-0.0797,0.9964,0.028
1.43978962763098,-0.712678686518082,31.5690235323806,0.316,0.0915,0.9443
-1.34562637717649,0.877607392344529,31.5690235323806,0.316,0.0915,0.9443
1.42415989412673,-0.879792749527383,31.6379394148749,0.1399,0.7947,0.5906
-1.31038484430955,1.04170929052392,31.6379394148749,0.1399,0.7947,0.5906
1.40074002250998,-0.966746048117608,31.7068552973692,-0.0574,0.6886,0.7229
-1.27686732205129,1.12529123967523,31.7068552973692,-0.0574,0.6886,0.7229
1.46747171527125,-0.803577824988465,31.7757711798635,0.0337,-0.0288,0.999
-1.36238809299664,0.9711381158184,31.7757711798635,0.0337,-0.0288,0.999
1.6213817038082,-0.884155111705992,31.8446870623578,0.1448,0.9526,0.2674
-1.5057137655193,1.06931517679565,31.8446870623578,0.1448,0.9526,0.2674
1.53633534927994,-1.05388689696001,31.9136029448521,0.5507,0.27,0.7898
-1.40123174535387,1.22782469955758,31.9136029448521,0.5507,0.27,0.7898
1.3824252045925,-0.973309527374982,31.9825188273464,0.4629,0.5443,0.6996
-1.25790592755096,1.12964753786466,31.9825188273464,0.4629,0.5443,0.6996
1.50793516673491,-0.843020716503136,32.0514347098407,0.1766,0.8976,0.4038
-1.39791417801871,1.01508046302921,32.0514347098407,0.1766,0.8976,0.4038
1.44989821120517,-0.886504091842645,32.1203505923351,0.5316,0.0308,0.8465
-1.33515131390657,1.05141109785053,32.1203505923351,0.5316,0.0308,0.8465
1.31474403646562,-0.998688645755922,32.1892664748294,-0.0237,0.8813,0.4719
-1.18770271041234,1.14686231268748,32.1892664748294,-0.0237,0.8813,0.4719
1.37278099199536,-0.955205270416413,32.2581823573237,-0.0979,0.9056,-0.4127
-1.25046557452447,1.11053167786616,32.2581823573237,-0.0979,0.9056,-0.4127
1.50455647605027,-0.851872458168338,32.327098239818,-0.0248,0.3454,-0.9381
-1.39351450819874,1.02347163617278,32.327098239818,-0.0248,0.3454,-0.9381
1.64789014621506,-0.878233646558747,32.3960141223123,0.0232,0.9994,-0.0269
-1.53273576785231,1.06656333046226,32.3960141223123,0.0232,0.9994,-0.0269
1.54290916197422,-1.00399866131784,32.4649300048066,-0.2882,0.3753,-0.881
-1.41364689884193,1.1790608294005,32.4649300048066,-0.2882,0.3753,-0.881
1.39957552845092,-0.977637592436432,32.5338458873009,-0.146,0.8521,-0.5026
-1.27442566147065,1.13596925810898,32.5338458873009,-0.146,0.8521,-0.5026
1.54610359184229,-0.937803578456019,32.6027617697952,0.4411,0.8754,-0.1977
-1.42463064246826,1.11370525769299,32.6027617697952,0.4411,0.8754,-0.1977
1.49285936752104,-1.09034814215276,32.6716776522895,0.8734,-0.1594,-0.4601
-1.35375678668251,1.25890060163713,32.6716776522895,0.8734,-0.1594,-0.4601
1.31816035576077,-1.07761255888673,32.7405935347839,0.5834,0.8112,-0.0402
-1.18178140303021,1.22563790167476,32.7405935347839,0.5834,0.8112,-0.0402
1.37140458008202,-0.925067995189994,32.8095094172782,0.9974,-0.0505,0.0508
-1.25265525881597,1.08044255773061,32.8095094172782,0.9974,-0.0505,0.0508
1.55298528105671,-0.920098721166728,32.8784252997725,0.4146,0.0875,-0.9058
-1.43355358349103,1.09693621652832,32.8784252997725,0.4146,0.0875,-0.9058
1.57700681829161,-0.899481962411389,32.9473411822668,0.0815,0.8387,-0.5384
-1.45984023911998,1.0792982821666,32.9473411822668,0.0815,0.8387,-0.5384
1.39868388361334,-0.958143892579591,33.0162570647611,0.0708,-0.2069,-0.9758
-1.27584068472921,1.11650654828217,33.0162570647611,0.0708,-0.2069,-0.9758
1.37466234637845,-0.978760651334931,33.0851729472554,-0.5753,0.7465,0.3343
-1.24955402910027,1.13414448264389,33.0851729472554,-0.5753,0.7465,0.3343
1.5470831455,-0.915636169786269,30.810007,-0.1725,0.9658,0.1937
