1.48335443011704,-0.817674035794553,18.9415816854107,-0.751,-0.4501,-0.4831
-1.44954978638078,0.87620580400031,18.9415816854107,-0.751,-0.4501,-0.4831
1.31300940201643,-1.04171106270145,18.9753109021995,-0.7897,0.5724,-0.2208
-1.27040177091151,1.09326802221735,18.9753109021995,-0.7897,0.5724,-0.2208
1.13085944459083,-1.02785407329782,19.0090401189884,-0.9273,0.3521,0.1266
-1.0889497145459,1.07215465237325,19.0090401189884,-0.9273,0.3521,0.1266
1.4113304438872,-0.953835837919687,19.0427693357773,-0.9716,-0.128,0.1992
-1.37215056880723,1.0093855774999,19.0427693357773,-0.9716,-0.128,0.1992
1.52090683852237,-1.23366519743258,19.0764985525661,-0.4551,0.8707,0.1864
-1.47047509019623,1.29336400132865,19.0764985525661,-0.4551,0.8707,0.1864
1.23869036898818,-1.3460742758034,19.110227769355,-0.8909,-0.0055,0.4542
-1.18399843872423,1.39442371010475,19.110227769355,-0.8909,-0.0055,0.4542
1.12911406208874,-1.0662450960193,19.1439569861439,-0.8644,0.3967,0.3089
-1.08567399783029,1.11044546936217,19.1439569861439,-0.8644,0.3967,0.3089
1.44628240661914,-1.05894277702261,19.1776862029327,-0.0003,0.9881,-0.1539
-1.40288114761155,1.11580333857741,19.1776862029327,-0.0003,0.9881,-0.1539
1.37125448859272,-1.1466935961323,19.2114154197216,-0.8472,0.3922,0.3584
-1.32441189015182,1.20049082508822,19.2114154197216,-0.8472,0.3922,0.3584
1.08981436121146,-1.21109727421251,19.2451446365104,0.1139,0.9899,0.0848
-1.04062628080539,1.25361433192385,19.2451446365104,0.1139,0.9899,0.0848
1.16484236697361,-1.12334663483162,19.2788738532993,-0.6628,0.6803,0.3129
-1.11909561876018,1.1689270284992,19.2788738532993,-0.6628,0.6803,0.3129
1.43109104307636,-1.07012265146157,19.3126030700882,-0.884,0.4363,0.1678
-1.38725582573669,1.12636820654,19.3126030700882,-0.884,0.4363,0.1678
1.6721241365148,-1.17625669946209,19.346332286877,-0.2383,0.9712,-0.0071
-1.62386246542019,1.24203447792091,19.346332286877,-0.2383,0.9712,-0.0071
1.50162638565643,-1.4007955894173,19.3800615036659,-0.9425,-0.0136,0.334
-1.44454182547933,1.45959206625393,19.3800615036659,-0.9425,-0.0136,0.334
1.26059302475346,-1.29466144942372,19.4137907204548,-0.6323,0.7222,0.2804
-1.2079349222146,1.34392569228191,19.4137907204548,-0.6323,0.7222,0.2804
1.11081146989883,-0.271371434504816,19.4475199372436,-0.7562,0.6278,0.1847
-1.0990998261978,0.315474482606697,19.4475199372436,-0.7562,0.6278,0.1847
1.27434579871649,-0.498842135181975,19.4812491540325,-0.9541,-0.1583,0.2541
-1.25342832256149,0.549288749875661,19.4812491540325,-0.9541,-0.1583,0.2541
1.08644890999294,-0.700478997669988,19.5149783708213,-0.4953,0.8383,0.228
-1.05763614312015,0.743268355957352,19.5149783708213,-0.4953,0.8383,0.228
0.92291458117528,-0.47300829699283,19.5487075876102,-0.908,0.1264,0.3993
-0.903307646756455,0.509454088688387,19.5487075876102,-0.908,0.1264,0.3993
1.10768354889855,-0.241443178237268,18.991004,-0.4153,0.721,0.5548
-1.09716847251452,0.285445258741435,18.991004,-0.4153,0.721,0.5548
1.07584693114886,-0.169934376741089,19.0247332167889,-0.1508,0.9885,-0.01
-1.06821026056519,0.212723179000423,19.0247332167889,-0.1508,0.9885,-0.01
1.02145838258394,-0.461843850301165,19.0584624335777,-0.5625,0.0901,0.8219
-1.00221842232501,0.502230229440999,19.0584624335777,-0.5625,0.0901,0.8219
1.0532949125979,-0.533352472068546,19.0921916503666,-0.1555,0.9132,0.3766
-1.03117655377928,0.574952126095841,19.0921916503666,-0.1555,0.9132,0.3766
1.13779304344005,-0.252105918159804,19.1259208671555,-0.6599,0.5678,0.4921
-1.1268285709377,0.297300816329641,19.1259208671555,-0.6599,0.5678,0.4921
1.41086788113148,-0.22130584087423,19.1596500839443,-0.9073,0.0708,0.4144
-1.40091483585005,0.277420395624961,19.1596500839443,-0.9073,0.0708,0.4144
1.41290301970103,-0.518040731866177,19.1933793007332,-0.3185,0.9135,0.2532
-1.3911092335152,0.574000212004719,19.1933793007332,-0.3185,0.9135,0.2532
1.13982827400266,-0.54884054168722,19.227108517522,-0.3783,-0.0176,0.9255
-1.11702307119396,0.593880369128171,19.227108517522,-0.3783,-0.0176,0.9255
1.18718392707089,-0.285461588899338,19.2608377343109,-0.1229,0.576,0.8082
-1.1748493038921,0.332600524017414,19.2608377343109,-0.1229,0.576,0.8082
1.18455820902003,-0.470197755009598,19.2945669510998,-0.09,0.757,0.6472
-1.16485507811866,0.517084834774696,19.2945669510998,-0.09,0.757,0.6472
1.17590115801161,-0.711479135143991,19.3282961678886,-0.0301,-0.0628,0.9976
-1.14657828240338,0.757828697978106,19.3282961678886,-0.0301,-0.0628,0.9976
1.1785269637982,-0.52674314876253,19.3620253846775,0.0186,0.8665,0.4988
-1.15657258867188,0.573344570306993,19.3620253846775,0.0186,0.8665,0.4988
1.16504636825225,-0.287558831744448,19.3957546014664,0.8223,0.5367,0.1892
-1.1526456961707,0.333812853244379,19.3957546014664,0.8223,0.5367,0.1892
1.07884677073402,-0.122705701298056,19.4294838182552,0.8526,0.3364,0.3999
-1.07309203993656,0.165651796486105,19.4294838182552,0.8526,0.3364,0.3999
1.16054429532265,-0.349723786489196,19.4632130350441,0.5181,0.7955,0.3141
-1.14566695233787,0.395748686116761,19.4632130350441,0.5181,0.7955,0.3141
1.24674389284088,-0.514576916935587,19.4969422518329,0.8451,-0.442,0.3007
-1.22522060857201,0.563909742875035,19.4969422518329,0.8451,-0.442,0.3007
1.30221665743968,-0.279610546316884,19.5306714686218,0.787,0.5895,0.1819
-1.2900238852083,0.331343712958452,19.5306714686218,0.787,0.5895,0.1819
1.44187915194455,-0.44747707013887,19.5644006854107,0.8295,0.4606,0.3158
-1.42287764078823,0.504648824884523,19.5644006854107,0.8295,0.4606,0.3158
1.27803521718467,-0.689430100651903,19.5981299021995,0.9055,-0.1522,0.3962
-1.24951073000748,0.739872161691015,19.5981299021995,0.9055,-0.1522,0.3962
1.1383727226798,-0.521563576829917,19.6318591189884,-0.8908,0.4152,-0.1848
-1.11665697442755,0.566567049764944,19.6318591189884,-0.8908,0.4152,-0.1848
1.36613338656088,-0.342002878573722,19.6655883357773,0.2394,0.9668,-0.0898
-1.35140039366278,0.396236513760521,19.6655883357773,0.2394,0.9668,-0.0898
1.26723458580969,-0.270437935528566,19.6993175525661,0.0731,0.9969,0.0279
-1.2554356363119,0.320782692056995,19.6993175525661,0.0731,0.9969,0.0279
1.01112626140213,-0.426088068199742,19.733046769355,-0.2233,0.9727,0.0629
-0.993321111204386,0.466090686878555,19.733046769355,-0.2233,0.9727,0.0629
1.11002524188212,-0.497652923509166,19.7667759861439,0.8619,0.5018,0.0734
-1.08928605164143,0.541544428087021,19.7667759861439,0.8619,0.5018,0.0734
1.36655869205532,-0.380779777676621,19.8005052029327,-0.0523,0.9942,-0.0941
-1.35027824086755,0.434999505929653,19.8005052029327,-0.0523,0.9942,-0.0941
1.56249351037976,-0.514021836319411,19.8342344197216,0.5233,0.8283,-0.2
-1.54074095988089,0.575952873712206,19.8342344197216,0.5233,0.8283,-0.2
1.33250181918156,-0.661172708151661,19.8679636365104,0.7244,0.6848,-0.0792
-1.30506137611913,0.713810375862379,19.8679636365104,0.7244,0.6848,-0.0792
1.13656682112832,-0.527930737244603,19.9016928532993,-0.0086,0.9961,0.0877
-1.11459847401962,0.572857088574884,19.9016928532993,-0.0086,0.9961,0.0877
1.39059414357611,-0.509373481988424,19.9354220700882,0.6479,0.1669,-0.7432
-1.36916392632925,0.564449784427158,19.9354220700882,0.6479,0.1669,-0.7432
1.24499412319197,-0.669463821270769,19.969151286877,0.4774,0.7051,-0.5244
-1.2172925587521,0.718603507631127,19.969151286877,0.4774,0.7051,-0.5244
0.986267788820037,-0.644389734284738,20.0028805036659,0.6707,0.6042,-0.4301
-0.959772638146304,0.683226729557036,20.0028805036659,0.6707,0.6042,-0.4301
1.13186789693991,-0.484299574731193,20.0366097204548,0.7645,-0.3457,-0.5441
-1.11164408621851,0.529073189439236,20.0366097204548,0.7645,-0.3457,-0.5441
1.40650442906925,-0.495286365380445,20.0703389372436,0.346,0.8228,-0.4508
-1.38562359078663,0.551008672689258,20.0703389372436,0.346,0.8228,-0.4508
1.49472607501665,-0.421500356743764,20.1040681540325,0.5702,0.0454,-0.8203
-1.47671890315839,0.480801280285818,20.1040681540325,0.5702,0.0454,-0.8203
1.22731609829984,-0.516733231261324,20.1377973708213,0.6364,0.1694,-0.7525
-1.20572225067026,0.565289210647411,20.1377973708213,0.6364,0.1694,-0.7525
1.13909436461672,-0.590519060169205,20.1715265876102,0.4888,0.7398,-0.4624
-1.11462685780343,0.635496419964682,20.1715265876102,0.4888,0.7398,-0.4624
1.23100522599257,-0.286543809679386,20.2052558043991,0.7796,0.3789,0.4986
-1.21859253208013,0.335430264056701,20.2052558043991,0.7796,0.3789,0.4986
1.41195231032836,-0.27045643249546,20.2389850211879,0.1173,0.9903,-0.0752
-1.40003739263976,0.326575118051324,20.2389850211879,0.1173,0.9903,-0.0752
1.42497350694003,-0.574000305444727,20.2727142379768,0.4329,0.8259,0.3612
-1.40093743622304,0.630396816235947,20.2727142379768,0.4329,0.8259,0.3612
1.24402660233304,-0.59008759489292,20.3064434547657,0.6391,0.2245,0.7356
-1.21949275874958,0.639251881746265,20.3064434547657,0.6391,0.2245,0.7356
1.41478590880163,-0.309531039321023,19.3869,0.1976,0.9606,0.1954
-1.40130973730706,0.365731666902411,19.3869,0.1976,0.9606,0.1954
1.65276206768783,-0.46246450083435,19.4206292167889,0.828,0.0402,0.5592
-1.63299467479406,0.528038122689995,19.4206292167889,0.828,0.0402,0.5592
1.49590929526951,-0.722005726816902,19.4543584335777,0.7234,0.5363,0.4348
-1.46591162636952,0.781114583723026,19.4543584335777,0.7234,0.5363,0.4348
1.2579333161121,-0.569072177567842,19.4880876503666,0.5763,0.7302,0.3672
-1.23422687196869,0.618808047440383,19.4880876503666,0.5763,0.7302,0.3672
1.33133961872963,-0.330423079990616,19.5218168671555,0.9013,-0.1879,0.3904
-1.31709634054172,0.383277734705856,19.5218168671555,0.9013,-0.1879,0.3904
1.54271714257651,-0.11207542471096,19.5555460839443,0.5464,0.8192,0.1744
-1.53701718560669,0.173537471380791,19.5555460839443,0.5464,0.8192,0.1744
1.76095290805011,-0.323593030360016,19.5892753007332,0.008,0.9949,-0.1002
-1.74664005923711,0.393593822532683,19.5892753007332,0.008,0.9949,-0.1002
1.54957520447444,-0.541940773375404,19.623004517522,0.2598,0.9625,-0.0779
-1.52671903108597,0.603334166352806,19.623004517522,0.2598,0.9625,-0.0779
1.60785553199407,-0.281755942440386,19.6567337343109,-0.3745,0.8224,0.4283
-1.59533380057575,0.345681772161825,19.6567337343109,-0.3745,0.8224,0.4283
1.88139973198459,-0.386755471388969,19.6904629510998,0.5751,0.5897,-0.567
-1.86447092514191,0.461511555068199,19.6904629510998,0.5751,0.5897,-0.567
1.7733844308884,-0.670896253492312,19.7241921678886,0.0696,0.9843,-0.162
-1.74520498923067,0.741116501119615,19.7241921678886,0.0696,0.9843,-0.162
1.49984041062668,-0.565896636807996,19.7579213846775,0.327,0.929,-0.1733
-1.47606804775068,0.625286637718183,19.7579213846775,0.327,0.929,-0.1733
1.60384008471572,-0.257825766464543,19.7916506014664,0.7115,0.358,-0.6047
-1.59227631605832,0.321610442171447,19.7916506014664,0.7115,0.358,-0.6047
1.73638318195209,-0.203672365531355,19.8253798182552,0.0016,0.9967,-0.0816
-1.72687448792102,0.272788361215619,19.8253798182552,0.0016,0.9967,-0.0816
1.82974373193078,-0.492722890579965,19.8591090350441,0.2922,0.4107,-0.8637
-1.80862817056888,0.565333628989194,19.8591090350441,0.2922,0.4107,-0.8637
1.69720063895174,-0.546875844319822,19.8928382518329,0.3198,0.6335,-0.7046
-1.67403002080223,0.614155263277624,19.8928382518329,0.3198,0.6335,-0.7046
1.63858144871096,-0.2607416095862,19.9265674686218,0.2206,0.9495,-0.2233
-1.62687368132395,0.325910073555247,19.9265674686218,0.2206,0.9495,-0.2233
1.87466000504385,-0.0700128826319721,19.9602966854107,0.9555,-0.2061,-0.211
-1.87037395166217,0.144752268338321,19.9602966854107,0.9555,-0.2061,-0.211
2.06612794801531,-0.304340936762668,19.9940259021995,0.4666,0.8546,-0.2281
-2.05234022579042,0.386532923516275,19.9940259021995,0.4666,0.8546,-0.2281
1.83004947941815,-0.495069843445696,20.0277551189884,0.9242,0.364,-0.1153
-1.80884003594726,0.567690911819371,20.0277551189884,0.9242,0.364,-0.1153
1.87200934036334,-0.225640684842732,20.0614843357773,0.9158,-0.2017,0.3472
-1.86151616381743,0.300150397151694,20.0614843357773,0.9158,-0.2017,0.3472
2.08184852168445,-0.376936669974153,20.0952135525661,0.2559,0.7669,0.5886
-2.06515185954437,0.459698072033549,20.0952135525661,0.2559,0.7669,0.5886
1.9789784875869,-0.639484341863526,20.128942769355,0.2482,-0.406,0.8795
-1.95188861507064,0.717932386912582,20.128942769355,0.2482,-0.406,0.8795
1.76913912653699,-0.488188444467837,20.1626719861439,0.9542,0.2158,-0.2072
-1.74825273625753,0.558384792525786,20.1626719861439,0.9542,0.2158,-0.2072
1.85165102672094,-0.220149475613617,20.1964012029327,0.6008,0.4954,-0.6274
-1.84139314841436,0.293851304816467,20.1964012029327,0.6008,0.4954,-0.6274
1.96135825322289,-0.0548488448106722,20.2301304197216,0.4817,-0.2981,-0.8241
-1.95760818149324,0.133059389046193,20.2301304197216,0.4817,-0.2981,-0.8241
2.08236379454688,-0.305505447476724,20.2638596365104,0.2048,0.7742,-0.5989
-2.06851668305764,0.388344284353255,20.2638596365104,0.2048,0.7742,-0.5989
1.97265656804494,-0.470806078279669,20.2975888532993,0.4431,0.0472,-0.8952
-1.95230164997877,0.549136200123529,20.2975888532993,0.4431,0.0472,-0.8952
2.00840049837317,-0.193823534906606,20.3313180700882,0.2352,0.9477,0.2159
-1.99906816134725,0.273800311973907,20.3313180700882,0.2352,0.9477,0.2159
2.30349986566504,-0.245191601135897,20.365047286877,-0.5287,0.8377,-0.1368
-2.29188307671552,0.336901343202174,20.365047286877,-0.5287,0.8377,-0.1368
2.25549273243224,-0.544475084080225,20.3987765036659,0.7412,0.5888,0.3223
-2.23197336464062,0.634031137069471,20.3987765036659,0.7412,0.5888,0.3223
1.96039354486916,-0.493106930115202,20.4325057204548,0.1173,0.9911,-0.0629
-1.93915863235852,0.570930025346146,20.4325057204548,0.1173,0.9911,-0.0629
2.07506582284145,-0.200454797858615,20.4662349372436,0.3784,0.8648,0.3301
-2.06541583019944,0.283086106106851,20.4662349372436,0.3784,0.8648,0.3301
2.12443661643232,-0.284495738053784,20.4999641540325,0.669,0.2499,0.7
-2.11139424963667,0.36902992400398,20.4999641540325,0.669,0.2499,0.7
2.07580381093373,-0.574702288458106,20.5336933708213,0.1016,0.9933,0.0545
-2.05122151468445,0.657065049703279,20.5336933708213,0.1016,0.9933,0.0545
2.02643292960712,-0.490661168534138,20.5674225876102,0.8165,0.4166,0.3997
-2.00524301475217,0.57112104871998,20.5674225876102,0.8165,0.4166,0.3997
2.05980557944229,-0.219903370645288,20.6011518043991,0.5609,0.7612,0.3255
-2.04939177901604,0.301910340373129,20.6011518043991,0.5609,0.7612,0.3255
2.2780445870866,-0.0516598875142421,20.6348810211879,0.2035,0.9538,0.2209
-2.27416958961359,0.142508113485885,20.6348810211879,0.2035,0.9538,0.2209
2.4140344445577,-0.304447812756472,20.6686102379768,0.8495,0.239,0.4704
-2.39996544074784,0.400520478152176,20.6686102379768,0.8495,0.239,0.4704
2.19579534492032,-0.472691563352049,20.7023394547657,0.2422,0.9696,0.0359
-2.17518752755918,0.559922968620649,20.7023394547657,0.2422,0.9696,0.0359
1.49427139191457,-0.626091118640671,19.76837,0.3909,0.7997,-0.4558
-1.46810182555496,0.685210997676789,19.76837,0.3909,0.7997,-0.4558
1.4108980568132,-0.914205549192273,19.8020992167889,0.6466,0.6041,-0.4658
-1.37329969417709,0.969769592669475,19.8020992167889,0.6466,0.6041,-0.4658
1.12575235715707,-0.845424289666026,19.8358284335777,-0.0135,0.9944,0.1045
-1.09112527202812,0.889666364399356,19.8358284335777,-0.0135,0.9944,0.1045
1.20912551252964,-0.557309946850156,19.8695576503666,0.647,0.1598,-0.7455
-1.18592722031983,0.605107849901729,19.8695576503666,0.647,0.1598,-0.7455
1.50433632258948,-0.57787083282371,19.9032868671555,0.4357,0.7747,-0.4582
-1.48008263374338,0.637430677157642,19.9032868671555,0.4357,0.7747,-0.4582
1.61593979586704,-0.610151844841059,19.9370160839443,0.59,0.7241,-0.3571
-1.5903092968279,0.674138737985368,19.9370160839443,0.59,0.7241,-0.3571
1.3758984799993,-0.780604887505258,19.9707453007332,0.7987,-0.0724,-0.5973
-1.34365838095577,0.834878897175399,19.9707453007332,0.7987,-0.0724,-0.5973
1.26429500672174,-0.74832387548791,20.004474517522,0.182,0.9385,-0.2933
-1.23343171787125,0.798170836347673,20.004474517522,0.182,0.9385,-0.2933
1.53796651917667,-0.641920390396162,20.0382037343109,0.5017,0.261,-0.8247
-1.51113060511603,0.70277101249014,20.0382037343109,0.5017,0.261,-0.8247
1.72157434546416,-0.884110585158672,20.0719329510998,0.5229,0.4248,-0.739
-1.68492933763956,0.952093945423187,20.0719329510998,0.5229,0.4248,-0.739
1.47977605445746,-1.06671854963262,20.1056621678886,0.33,0.874,-0.3566
-1.43603788887132,1.1249092484294,20.1056621678886,0.33,0.874,-0.3566
1.29616796070544,-0.824528262877043,20.1393913846775,0.5539,-0.0324,-0.832
-1.26223889276657,0.875586212905243,20.1393913846775,0.5539,-0.0324,-0.832
1.57695797122203,-0.773054724486035,20.1731206014664,0.3555,0.9347,-0.0041
-1.54485901654372,0.835356611905629,20.1731206014664,0.3555,0.9347,-0.0041
1.45355851511244,-0.908814278783689,20.2068498182552,0.6532,0.7011,0.2861
-1.41614128522343,0.966084680792909,20.2068498182552,0.6532,0.7011,0.2861
1.19922122197686,-0.960353869275152,20.2405790350441,0.8358,0.1259,0.5344
-1.15995018074179,1.00743569108332,20.2405790350441,0.8358,0.1259,0.5344
1.32262049835765,-0.824594402713231,20.2743082518329,0.3235,0.9242,0.2029
-1.28866772897591,0.876707702691101,20.2743082518329,0.3235,0.9242,0.2029
1.55022798671049,-0.742385486970032,20.3080374686218,0.6605,-0.2532,0.7069
-1.51937395593134,0.803645322316853,20.3080374686218,0.6605,-0.2532,0.7069
1.74810148501129,-0.686944976841382,20.3417666854107,0.2601,0.2712,0.9267
-1.71930186315538,0.756143707542893,20.3417666854107,0.2601,0.2712,0.9267
1.60402424776574,-0.887798274203739,20.3754959021995,0.4367,0.521,0.7334
-1.56732570684443,0.951088687643915,20.3754959021995,0.4367,0.521,0.7334
1.40615083720068,-0.943238964061188,20.4092251189884,0.8849,-0.3258,0.3329
-1.36739788011544,0.998590485504044,20.4092251189884,0.8849,-0.3258,0.3329
1.63995644089098,-0.832346408227101,20.4429543357773,0.5671,0.8225,-0.0444
-1.60544170629027,0.897114596365559,20.4429543357773,0.5671,0.8225,-0.0444
1.67224190649074,-1.09466903680803,20.4766835525661,0.9498,0.3017,-0.0832
-1.62723532392253,1.16051647749988,20.4766835525661,0.9498,0.3017,-0.0832
1.39397974633813,-1.17946910508586,20.510412769355,0.9697,0.2415,0.0369
-1.34581137676675,1.23414692853734,20.510412769355,0.9697,0.2415,0.0369
1.36169437273144,-0.9171462090404,20.5441419861439,0.5339,0.8417,0.0806
-1.3240178617256,0.970744783821788,20.5441419861439,0.5339,0.8417,0.0806
1.66311918495583,-0.870223474758526,20.5778712029327,0.5696,0.7599,-0.3131
-1.62707478907744,0.935885650139779,20.5778712029327,0.5696,0.7599,-0.3131
1.62189970038862,-0.819092557663939,20.6116004197216,-0.33,0.944,0.0037
-1.58792814506858,0.883150871731567,20.6116004197216,-0.33,0.944,0.0037
1.33082100404379,-0.902837860037225,20.6453296365104,-0.0062,0.9974,0.0711
-1.29373994979415,0.955216042907227,20.6453296365104,-0.0062,0.9974,0.0711
1.3720406683398,-0.953968689396079,20.6790588532993,0.8204,0.5644,-0.0915
-1.33288677688919,1.00795074082038,20.6790588532993,0.8204,0.5644,-0.0915
1.6569025813593,-0.906524047068114,20.7127880700882,-0.158,0.9872,-0.0226
-1.61941481616986,0.971909288564223,20.7127880700882,-0.158,0.9872,-0.0226
1.81180787062237,-1.12293828432132,20.746517286877,0.8765,0.4515,-0.1667
-1.76556227424562,1.19433161483916,20.746517286877,0.8765,0.4515,-0.1667
1.55109403960578,-1.23685146365334,20.7802465036659,0.7244,0.685,-0.0781
-1.5005111294284,1.29775213862414,20.7802465036659,0.7244,0.685,-0.0781
1.39618883807844,-1.02043740612894,20.8139757204548,0.2696,0.9626,0.028
-1.3543637518477,1.07532999543537,20.8139757204548,0.2696,0.9626,0.028
1.64008812755425,-1.0754071006607,20.8477049372436,0.8969,0.125,-0.4242
-1.59587565933987,1.13998700791826,20.8477049372436,0.8969,0.125,-0.4242
1.44380031757472,-1.19169572486323,20.8814341540325,0.2545,0.9284,-0.2707
-1.3951044614807,1.24835155274578,20.8814341540325,0.2545,0.9284,-0.2707
1.21308339349945,-1.06491914938398,20.9151633708213,0.6453,0.6364,-0.4226
-1.1696293719907,1.11247078455368,20.9151633708213,0.6453,0.6364,-0.4226
1.40937102375018,-0.948630612917188,20.9488925876102,0.8504,0.3937,-0.349
-1.37040038676369,1.00410632022122,20.9488925876102,0.8504,0.3937,-0.349
1.65713411021176,-1.05875589179408,20.9826218043991,-0.2121,0.9721,0.0998
-1.61357241875461,1.12402915757127,20.9826218043991,-0.2121,0.9721,0.0998
1.77783221238252,-1.10503219051142,21.0163510211879,0.8596,0.3923,-0.3274
-1.73232808565482,1.17508421872771,21.0163510211879,0.8596,0.3923,-0.3274
1.49918093465602,-1.10977530324363,21.0500802379768,0.4289,0.8895,-0.1576
-1.45370944094653,1.16870593385528,21.0500802379768,0.4289,0.8895,-0.1576
1.3784830999498,-1.06349909651935,21.0838094547657,0.4814,0.8762,0.0237
-1.33495403762755,1.11765097528995,21.0838094547657,0.4814,0.8762,0.0237
1.66360692192682,-1.12716531299132,21.1175386715545,0.9999,-0.0113,-0.0046
-1.61731067936311,1.19264236043824,21.1175386715545,0.9999,-0.0113,-0.0046
1.64142979692519,-1.40535404256479,21.1512678883434,0.3793,0.9205,-0.0943
-1.58405204648976,1.46972476239555,21.1512678883434,0.3793,0.9205,-0.0943
1.33826521863579,-1.38344773883073,21.1849971051323,0.9701,0.1884,-0.1532
-1.28200287739422,1.43574024943202,21.1849971051323,0.9701,0.1884,-0.1532
1.36044243563048,-1.10525874179273,21.2187263219211,0.9599,0.2498,-0.1269
-1.31526161285867,1.15865758389347,21.2187263219211,0.9599,0.2498,-0.1269
1.55998417438209,-0.43859396036648,21.25245553871,0.6088,0.7859,-0.1082
-1.54124304122055,0.500484939115794,21.25245553871,0.6088,0.7859,-0.1082
1.65188608434939,-0.550034301074334,21.2861847554988,0.8325,-0.3235,-0.4498
-1.62862553149051,0.615503246297482,21.2861847554988,0.8325,-0.3235,-0.4498
1.67752247270174,-0.82642747190771,21.3199139722877,0.6779,0.5883,-0.441
-1.64321398003971,0.892699181440852,21.3199139722877,0.6779,0.5883,-0.441
1.58562065047017,-0.714987310928655,21.3536431890766,0.8665,0.391,-0.3104
-1.55583157026482,0.777681057345333,21.3536431890766,0.8665,0.391,-0.3104
1.51575976315161,-0.479676419866335,21.3873724058654,0.0571,0.7642,-0.6424
-1.49541473645499,0.539770222741535,21.3873724058654,0.0571,0.7642,-0.6424
1.61073972187498,-0.223797025669876,21.4211016226543,0.0107,0.9609,0.2768
-1.60052813719852,0.287884077990437,21.4211016226543,0.0107,0.9609,0.2768
1.83475920699548,-0.378010966420724,21.4548308394432,-0.0895,0.3561,-0.9301
-1.81821642527193,0.450913150462886,21.4548308394432,-0.0895,0.3561,-0.9301
1.73977924827211,-0.633890360617183,21.488560056232,-0.1497,0.7242,-0.6732
-1.7131030245284,0.702799295213983,21.488560056232,-0.1497,0.7242,-0.6732
1.69576355119529,-0.393534831739559,21.5222892730209,-0.1325,0.875,-0.4656
-1.67871207277729,0.460879010225617,21.5222892730209,-0.1325,0.875,-0.4656
1.97826420542952,-0.456304505991016,21.5560184898097,-0.3732,0.0946,-0.9229
-1.95848340566063,0.534869907943367,21.5560184898097,-0.3732,0.0946,-0.9229
1.94902607881643,-0.740795965865152,21.5897477065986,0.5801,0.8108,0.0785
-1.9179179272769,0.817968302062196,21.5897477065986,0.5801,0.8108,0.0785
1.66652542458221,-0.678026291613695,21.6234769233875,-0.3251,0.9421,0.0825
-1.63814659439356,0.743977404344446,21.6234769233875,-0.3251,0.9421,0.0825
1.65465585981535,-0.382571499231095,21.6572061401763,-0.7332,0.6765,-0.0691
-1.63807452776659,0.448284293643501,21.6572061401763,-0.7332,0.6765,-0.0691
1.59552530655569,-0.36484892158543,21.6909353569652,0.0391,0.9969,-0.0684
-1.5796981515943,0.428216638269967,21.6909353569652,0.0391,0.9969,-0.0684
1.74729044039413,-0.624279881102295,21.7246645737541,-0.8629,0.4397,0.2491
-1.72099167457549,0.693496149292595,21.7246645737541,-0.8629,0.4397,0.2491
1.80642108564685,-0.642002191283428,21.7583937905429,-0.259,0.9554,0.1416
-1.77936815333889,0.7135635410849,21.7583937905429,-0.259,0.9554,0.1416
1.63694743871129,-0.413907497261495,21.7921230073318,-0.3229,0.9463,0.0172
-1.6191299640556,0.478888810570912,21.7921230073318,-0.3229,0.9463,0.0172
1.73840851902906,-0.16425867966103,21.8258522241207,-0.5011,-0.02,-0.8652
-1.73047073848611,0.233486864984139,21.8258522241207,-0.5011,-0.02,-0.8652
1.99268730735259,-0.311520244741124,21.8595814409095,-0.2386,0.9437,-0.2291
-1.97867162175337,0.390776382392242,21.8595814409095,-0.2386,0.9437,-0.2291
1.89122640676361,-0.561168974605857,21.8933106576984,-0.4563,-0.0655,-0.8874
-1.86733103040903,0.636178247483957,21.8933106576984,-0.4563,-0.0655,-0.8874
1.69532730242363,-0.378935917115204,21.9270398744872,0.237,0.0444,-0.9705
-1.67885863845524,0.446274314415637,21.9270398744872,0.237,0.0444,-0.9705
1.86240944532815,-0.464740784678498,21.9607690912761,-0.443,0.6316,-0.6363
-1.84238430346734,0.538677099316681,21.9607690912761,-0.443,0.6316,-0.6363
2.03530918025523,-0.635888175946092,21.994498308065,-0.9121,-0.3236,-0.2515
-2.00831793465454,0.716586564822574,21.994498308065,-0.9121,-0.3236,-0.2515
1.86822712508645,-0.550083488111597,22.0282275248538,-0.6894,0.7244,-0.001
-1.84479235013749,0.6241839630077,22.0282275248538,-0.6894,0.7244,-0.001
1.70577937354421,-0.360638904443996,22.0619567416427,-0.915,0.3425,-0.2133
-1.6900324009109,0.428408887021242,22.0619567416427,-0.915,0.3425,-0.2133
1.59932913798552,-0.222842676309479,22.0956859584316,-0.0289,0.9473,-0.319
-1.58916471548915,0.286475229362956,22.0956859584316,-0.0289,0.9473,-0.319
1.78576585970151,-0.390201262140371,22.1294151752204,0.3975,0.6645,0.6328
-1.76877572041421,0.46113900455785,22.1294151752204,0.3975,0.6645,0.6328
1.89221618725326,-0.527997222810356,22.1631443920093,-0.4168,0.7597,-0.4992
-1.86964350842706,0.603072398634908,22.1631443920093,-0.4168,0.7597,-0.4992
1.81364232113128,-0.279378946210255,22.1968736087981,-0.1253,0.9802,-0.1532
-1.80105157114437,0.351517144194124,22.1968736087981,-0.1253,0.9802,-0.1532
2.08987071935459,-0.269161881074796,22.230602825587,0.0362,0.987,-0.1566
-2.07746766514674,0.352329167269997,22.230602825587,0.0362,0.987,-0.1566
2.12486188843911,-0.566564547759643,22.2643320423759,-0.3941,0.3691,-0.8417
-2.100565209485,0.650891106422833,22.2643320423759,-0.3941,0.3691,-0.8417
1.8486334902158,-0.576781612895102,22.2980612591647,-0.1462,0.9852,-0.0893
-1.82414911548264,0.65007908334696,22.2980612591647,-0.1462,0.9852,-0.0893
1.87235591564051,-0.270789559158459,22.3317904759536,-0.4705,0.5457,-0.6934
-1.86006111460301,0.345277149729113,22.3317904759536,-0.4705,0.5457,-0.6934
1.87171483682581,-0.334417678707549,22.3655196927425,-0.3406,0.5877,-0.7339
-1.85688191329415,0.408829028209908,22.3655196927425,-0.3406,0.5877,-0.7339
1.87996247167931,-0.631578445176347,22.3992489095313,0.0432,0.9927,-0.113
-1.85326686903047,0.706082246971239,22.3992489095313,0.0432,0.9927,-0.113
1.88060355049401,-0.567950325627256,22.4329781263202,-0.9682,0.1797,0.1743
-1.85644607033933,0.642530368490444,22.4329781263202,-0.9682,0.1797,0.1743
1.865515919744,-0.288697607646659,22.4667073431091,-0.4574,0.8784,0.1384
-1.85251207017086,0.362898037126786,22.4667073431091,-0.4574,0.8784,0.1384
2.08735468863906,-0.131270934726464,22.5004365598979,-0.7334,0.6638,-0.1466
-2.08045520694781,0.214447630836046,22.5004365598979,-0.7334,0.6638,-0.1466
2.2041510773577,-0.389882039362142,22.5341657766868,-0.9392,-0.0931,-0.3305
-2.18684053890837,0.477512757757579,22.5341657766868,-0.9392,-0.0931,-0.3305
1.9823122207269,-0.547308532553538,22.5678949934756,-0.4589,0.8859,0.0679
-1.95889732163636,0.625962980962149,22.5678949934756,-0.4589,0.8859,0.0679
2.03842677484207,-0.295899010435907,22.6016242102645,-0.7986,0.0681,0.598
-2.02499792517187,0.37699249835989,22.6016242102645,-0.7986,0.0681,0.598
2.22694599485164,-0.472709673478568,22.6353534270534,-0.5668,0.4893,0.6628
-2.20631265150557,0.561183912093357,22.6353534270534,-0.5668,0.4893,0.6628
2.09957763870381,-0.719831315797085,22.6690826438422,-0.3904,0.8345,0.3889
-2.06918605885192,0.803027046867114,22.6690826438422,-0.3904,0.8345,0.3889
1.91105850642998,-0.543020832483223,22.7028118606311,-0.6865,-0.0867,0.722
-1.88787141301327,0.618835816219817,22.7028118606311,-0.6865,-0.0867,0.722
2.00606138030896,-0.276090507733383,22.73654107742,-0.1517,0.9873,-0.0479
-1.99344862038686,0.355908454388618,22.73654107742,-0.1517,0.9873,-0.0479
2.03157445224359,-0.181177682779859,22.7702702942088,-0.1665,0.7196,-0.6741
-2.02272820702038,0.262089122762509,22.7702702942088,-0.1665,0.7196,-0.6741
2.07998657052324,-0.467437467425409,22.8039995109977,0.0031,0.357,-0.9341
-2.05968059264079,0.550052520955059,22.8039995109977,0.0031,0.357,-0.9341
2.05447349858861,-0.562350292378934,22.8377287277865,0.0515,0.9643,-0.2597
-2.03040100600726,0.643871852581168,22.8377287277865,0.0515,0.9643,-0.2597
1.82680375255459,-0.568634048434312,22.8714579445754,0.0613,-0.1262,-0.9901
-1.80266183085631,0.641067044044599,22.8714579445754,0.0613,-0.1262,-0.9901
2.035148166445,-0.670192342520328,22.9051871613643,0.1504,0.5638,-0.8121
-2.00678838236442,0.750856992885144,22.9051871613643,0.1504,0.5638,-0.8121
1.89243818342867,-0.938311448173916,22.9389163781531,0.2152,0.6341,-0.7427
-1.85349462226677,1.01306877214787,22.9389163781531,0.2152,0.6341,-0.7427
1.68409376953826,-0.8367531540879,22.972645594942,0.1787,-0.1776,-0.9677
-1.64936807075867,0.903278823307327,22.972645594942,0.1787,-0.1776,-0.9677
1.95576631424284,-0.689480208261111,20.487766,-0.015,0.8409,-0.5409
-1.92670019052324,0.766962325899082,20.487766,-0.015,0.8409,-0.5409
2.03367592889161,-0.94620891900621,20.5214952167889,0.0089,0.1227,-0.9924
-1.99430481536066,1.02659505433706,20.5214952167889,0.0089,0.1227,-0.9924
1.75638480080237,-1.05938377092748,20.5552244335777,0.1388,0.258,-0.9561
-1.7127190307625,1.12861643805949,20.5552244335777,0.1388,0.258,-0.9561
1.67847491868907,-0.802654968189313,20.5889536503666,0.5763,0.8132,0.0815
-1.64511414234385,0.868983607030394,20.5889536503666,0.5763,0.8132,0.0815
1.86193841181163,-0.641114780491675,20.6226828671555,-0.683,0.6969,-0.2189
-1.83487668021827,0.714891865624247,20.6226828671555,-0.683,0.6969,-0.2189
2.15534189948474,-0.5941457363522,20.6564120839443,0.1457,0.9678,0.2053
-2.12992051759647,0.679666424374174,20.6564120839443,0.1457,0.9678,0.2053
2.19217960065717,-0.891831013030391,20.6901413007332,-0.2759,0.9437,-0.1827
-2.15485184817225,0.978584421380646,20.6901413007332,-0.2759,0.9437,-0.1827
1.89877620071979,-0.938800236898665,20.723870517522,-0.6394,0.4846,-0.5969
-1.8598080912891,1.01381004571689,20.723870517522,-0.6394,0.4846,-0.5969
2.08007455651669,-0.76150252951546,20.7575997343109,0.037,0.9989,0.0279
-2.04803590889216,0.843886946820978,20.7575997343109,0.037,0.9989,0.0279
2.2287655492079,-1.02308869191069,20.7913289510998,-0.7993,0.4477,-0.4008
-2.18617175025902,1.11119729266272,20.7913289510998,-0.7993,0.4477,-0.4008
1.96362954058979,-1.17035803352168,20.8250581678886,-0.4693,0.8447,-0.2574
-1.91537110572317,1.24777098326032,20.8250581678886,-0.4693,0.8447,-0.2574
1.81493854789858,-0.908771871126454,20.8587873846775,-0.183,0.9598,-0.2126
-1.77723526435631,0.980460637418577,20.8587873846775,-0.183,0.9598,-0.2126
2.08848326935057,-0.744590467598667,20.8925166014664,-0.8185,0.3015,-0.489
-2.0571126833402,0.827323841574094,20.8925166014664,-0.8185,0.3015,-0.489
2.16097058618338,-0.788757858689142,20.9262458182552,-0.1503,0.9886,0.0085
-2.12778009344889,0.874348161727498,20.9262458182552,-0.1503,0.9886,0.0085
2.00279879646946,-1.04836855015876,20.9599750350441,-0.9311,0.2181,-0.2923
-1.95937630645245,1.12744140682087,20.9599750350441,-0.9311,0.2181,-0.2923
1.93031130416517,-1.00420079961069,20.9937042518329,-0.8736,0.067,-0.482
-1.88870873535364,1.08041672049513,20.9937042518329,-0.8736,0.067,-0.482
2.07570615716794,-0.756315963490637,21.0274334686218,-0.413,0.849,-0.3297
-2.04387792130977,0.838530220277214,21.0274334686218,-0.413,0.849,-0.3297
2.37525177088166,-0.778836929473347,21.0611626854107,-0.6953,-0.4039,-0.5945
-2.34228648362061,0.872984516721881,21.0611626854107,-0.6953,-0.4039,-0.5945
2.34346793480478,-1.07493760108326,21.0948919021995,-0.1096,0.445,-0.8888
-2.29871413876402,1.16758131019951,21.0948919021995,-0.1096,0.445,-0.8888
2.04392205362653,-1.05241654310748,21.1286211189884,0.3697,0.3876,-0.8444
-2.00030531287195,1.13312691116373,21.1286211189884,0.3697,0.3876,-0.8444
2.22139734992173,-0.864146409026117,21.1623503357773,0.0916,-0.3626,-0.9274
-2.18515089262619,0.952087589944834,21.1623503357773,0.0916,-0.3626,-0.9274
2.24865058538666,-1.10535247965481,21.1960795525661,-0.3953,0.8012,-0.4493
-2.20275879483504,1.19418895121991,21.1960795525661,-0.3953,0.8012,-0.4493
2.01693035734578,-1.24023984355566,21.229808769355,-0.8164,0.0119,-0.5774
-1.96584133966167,1.31972374503269,21.229808769355,-0.8164,0.0119,-0.5774
1.98967694640938,-0.999033413469369,21.2635379861439,-0.7477,0.3538,-0.5619
-1.94823327646271,1.07762201758528,21.2635379861439,-0.7477,0.3538,-0.5619
2.19562737855385,-0.832276543356192,21.2972672029327,-0.4452,0.7885,-0.4243
-2.16067298338431,0.919214930769367,21.2972672029327,-0.4452,0.7885,-0.4243
2.3435009145906,-0.752353497831198,21.3309964197216,-0.7716,-0.2099,-0.6005
-2.31161754388658,0.845255377493429,21.3309964197216,-0.7716,-0.2099,-0.6005
2.25893910073134,-1.01301407586331,21.3647256365104,-0.0474,0.9638,0.2624
-2.21672323311216,1.10233456195971,21.3647256365104,-0.0474,0.9638,0.2624
2.11106565668767,-1.09293685392377,21.3984548532993,-0.1332,0.9431,-0.3046
-2.065778775201,1.17629385165442,21.3984548532993,-0.1332,0.9431,-0.3046
2.29863097734087,-0.881546242227645,21.4321840700882,-0.1431,0.63,-0.7633
-2.26162880539526,0.972555033806893,21.4321840700882,-0.1431,0.63,-0.7633
2.50989804557405,-1.08235172910536,21.465913286877,0.0636,0.9938,0.0912
-2.46471592236575,1.18162975872757,21.465913286877,0.0636,0.9938,0.0912
2.3051279186149,-1.30619018607586,21.4996425036659,-0.3314,0.2144,-0.9188
-2.25117814125413,1.39712007347913,21.4996425036659,-0.3314,0.2144,-0.9188
2.09386103011051,-1.10538461146241,21.5333717204548,-0.1725,0.7176,-0.6747
-2.04809120736981,1.1880452680634,21.5333717204548,-0.1725,0.7176,-0.6747
2.33074882864162,-0.917745208787793,21.5671009372436,-0.0284,0.8135,-0.5809
-2.29227681778001,1.0100066144019,21.5671009372436,-0.0284,0.8135,-0.5809
2.26810755281432,-0.992515186000631,21.6008301540325,-0.2485,0.063,-0.9666
-2.22670224903551,1.08221779680222,21.6008301540325,-0.2485,0.063,-0.9666
2.06314124185308,-1.19491585631211,21.6345593708213,-0.184,0.9507,-0.2497
-2.01382376434857,1.27627956719761,21.6345593708213,-0.184,0.9507,-0.2497
2.12578278514491,-1.12014597109234,21.6682885876102,-0.4354,0.4209,-0.7958
-2.0793985966743,1.2040684873884,21.6682885876102,-0.4354,0.4209,-0.7958
2.2988228167173,-0.914865381173506,21.7020178043991,-0.3152,0.4464,-0.8375
-2.26049112594057,1.00585529668721,21.7020178043991,-0.3152,0.4464,-0.8375
2.53829014288309,-0.891134285855238,21.7357470211879,-0.0678,0.9327,-0.3542
-2.50071460096275,0.991697357773995,21.7357470211879,-0.0678,0.9327,-0.3542
2.45609758893496,-1.14877014689008,21.7694762379768,-0.9401,0.3157,0.1285
-2.40830834367213,1.24584876231314,21.7694762379768,-0.9401,0.3157,0.1285
2.21663017503343,-1.17250106247955,21.8032054547657,-0.1314,0.9825,0.1317
-2.16808478815489,1.26000651814019,21.8032054547657,-0.1314,0.9825,0.1317
2.41526927629922,-1.00262919336438,21.8369346715545,-0.4702,0.8824,-0.019
-2.37334326792362,1.09819520533607,21.8369346715545,-0.4702,0.8824,-0.019
2.48285956968255,-1.25245491028791,21.8706638883434,-0.9596,0.2702,-0.0784
-2.43091220361912,1.35051871640645,21.8706638883434,-0.9596,0.2702,-0.0784
2.2382188266036,-1.39182586755025,21.9043931051323,-0.113,0.9933,0.022
-2.18090563496926,1.48001803120912,21.9043931051323,-0.113,0.9933,0.022
2.17062844548454,-1.14199997089792,21.9381223219211,-0.9733,0.1985,0.1156
-2.12333661877869,1.22769433705257,21.9381223219211,-0.9733,0.1985,0.1156
2.02118522814057,-0.681517008512164,21.97185153871,-0.8311,0.5551,0.0341
-1.99238473071589,0.761615548787678,21.97185153871,-0.8311,0.5551,0.0341
2.03569200754983,-0.577241661406671,22.0055807554988,-0.5422,0.8391,-0.0441
-2.01104033413538,0.658002021080844,22.0055807554988,-0.5422,0.8391,-0.0441
1.80168654347772,-0.755353800042407,22.0393099722877,-0.9699,-0.158,0.1854
-1.77011488166717,0.826635996002839,22.0393099722877,-0.9699,-0.158,0.1854
1.78717967207539,-0.859629414612431,22.0730391890766,-0.5378,0.8027,0.2578
-1.75145917565658,0.930249787290903,22.0730391890766,-0.5378,0.8027,0.2578
2.02194026577422,-0.68517004699701,21.03,-0.8937,0.3288,0.3052
-1.99299341832949,0.765295803043711,21.03,-0.8937,0.3288,0.3052
2.24709849859181,-0.856051606686458,21.0637292167889,-0.9759,0.1561,0.1522
-2.21115454318457,0.945024656735623,21.0637292167889,-0.9759,0.1561,0.1522
2.04887278620323,-1.07902131581754,21.0974584335777,0.139,0.9903,0.008
-2.00419062698888,1.15990802425136,21.0974584335777,0.139,0.9903,0.008
1.82371419818537,-0.908139484406226,21.1311876503666,-0.8553,0.2711,-0.4416
-1.78602915805752,0.980178884882174,21.1311876503666,-0.8553,0.2711,-0.4416
2.04070943585167,-0.750937098079475,21.1649168671555,-0.4387,0.8741,-0.2083
-2.00912367164403,0.831759339524166,21.1649168671555,-0.4387,0.8741,-0.2083
1.90468350319973,-0.878004852068478,21.1986460839443,-0.4043,0.806,-0.4323
-1.86813630270832,0.95329875806081,21.1986460839443,-0.4043,0.806,-0.4323
1.70586054311802,-1.01480918253717,21.2323753007332,-0.6084,-0.1165,-0.785
-1.66401343825859,1.08206152635768,21.2323753007332,-0.6084,-0.1165,-0.785
1.84188638803423,-0.887741248819368,21.266104517522,-0.3433,0.8829,-0.3203
-1.80500072669924,0.960521924734871,21.266104517522,-0.3433,0.8829,-0.3203
1.99834954681455,-0.722614179706499,21.2998337343109,-0.7828,0.1122,-0.612
-1.96792753830231,0.80176889934582,21.2998337343109,-0.7828,0.1122,-0.612
2.07326070846591,-0.544885146924448,21.3335629510998,-0.7517,0.4029,-0.5222
-2.04987008062452,0.627170185171363,21.3335629510998,-0.7517,0.4029,-0.5222
1.995228657078,-0.766717148090184,21.3672921678886,-0.3484,0.8996,-0.2635
-1.96304951453815,0.845712233961621,21.3672921678886,-0.3484,0.8996,-0.2635
1.92031740769091,-0.944446001143436,21.4010213846775,-0.9502,0.012,-0.3114
-1.88110689172089,1.02031076504991,21.4010213846775,-0.9502,0.012,-0.3114
1.9167299723354,-0.700762329210888,21.4347506014664,-0.5085,0.8575,-0.0782
-1.88724479720693,0.776677992674753,21.4347506014664,-0.5085,0.8575,-0.0782
2.14246308123741,-0.678189321035817,21.4684798182552,-0.736,0.6018,-0.31
-2.11369878538482,0.763129251369031,21.4684798182552,-0.736,0.6018,-0.31
2.25312327856695,-0.945402960453545,21.5022090350441,-0.1402,0.989,-0.046
-2.2136095881501,1.0345452417872,21.5022090350441,-0.1402,0.989,-0.046
2.02739016966493,-0.967975968628616,21.5359382518329,-0.0196,0.6457,-0.7633
-1.98715559997221,1.04809398309293,21.5359382518329,-0.0196,0.6457,-0.7633
1.84522812087437,-0.756673164636279,21.5696674686218,0.0604,0.7166,0.6948
-1.81356914949865,0.829691530710659,21.5696674686218,0.0604,0.7166,0.6948
1.81786153804134,-0.897933704453748,21.6033966854107,0.0454,0.9704,0.2372
-1.78058834796723,0.969747721919137,21.6033966854107,0.0454,0.9704,0.2372
2.08591795254479,-1.03424415800458,21.6371259021995,-0.0578,0.9853,0.161
-2.04299281424606,1.11664454686987,21.6371259021995,-0.0578,0.9853,0.161
2.11328453537782,-0.892983618187114,21.6708551189884,0.126,0.4971,0.8585
-2.07597361577747,0.976588355661391,21.6708551189884,0.126,0.4971,0.8585
1.86767525711985,-0.752837519243773,21.7045843357773,0.109,0.9922,-0.0604
-1.83615144688519,0.826754534635427,21.7045843357773,0.109,0.9922,-0.0604
1.85583332608614,-0.52658151744061,21.7383135525661,0.6187,0.485,0.618
-1.83334610056268,0.600206218123097,21.7383135525661,0.6187,0.485,0.618
2.0957636910359,-0.644021425721538,21.772042769355,0.3055,0.1736,0.9362
-2.06839980889562,0.727125350963227,21.772042769355,0.3055,0.1736,0.9362
2.10760562206961,-0.870277427524701,21.8057719861439,0.0753,0.8417,0.5346
-2.07120515521813,0.953673667475556,21.8057719861439,0.0753,0.8417,0.5346
1.99841407833393,-0.677887114496684,21.8395012029327,0.5707,-0.1534,0.8067
-1.96977653764516,0.757080022340125,21.8395012029327,0.5707,-0.1534,0.8067
2.13723876172275,-0.831675237751353,21.8732304197216,0.49,0.6855,0.5384
-2.1023548488437,0.916284516535303,21.8732304197216,0.49,0.6855,0.5384
2.14827089489412,-1.0783139952716,21.9069596365104,0.4181,0.5814,0.698
-2.10353781147644,1.16316704988436,21.9069596365104,0.4181,0.5814,0.698
2.0094460317765,-0.92452595975266,21.9406888532993,-0.5691,0.5568,0.6051
-1.97095931719172,1.00396263618424,21.9406888532993,-0.5691,0.5568,0.6051
2.00051894218519,-0.65961251528336,21.9744180700882,0.1909,0.9647,-0.1816
-1.97260884496944,0.738903953913184,21.9744180700882,0.1909,0.9647,-0.1816
1.93535741056111,-0.549111997910797,22.008147286877,-0.54,0.4341,0.7211
-1.91190794420924,0.62589160861365,22.008147286877,-0.54,0.4341,0.7211
1.98934461703517,-0.822165805231492,22.0418765036659,-0.6424,0.5973,0.4802
-1.95495787062644,0.900881979337198,22.0418765036659,-0.6424,0.5973,0.4802
2.05450623639498,-0.932666502332854,22.0756057204548,-0.2921,0.9341,0.2051
-2.01565885188169,1.0138945077229,22.0756057204548,-0.2921,0.9341,0.2051
2.0379414809864,-0.642101610701581,22.1093349372436,-0.344,0.2006,0.9173
-2.0107002359923,0.722900075647472,22.1093349372436,-0.344,0.2006,0.9173
2.30102654747775,-0.612278449159555,22.1430641540325,0.0473,0.9739,0.2218
-2.2747657070137,0.703597221211855,22.1430641540325,0.0473,0.9739,0.2218
2.33179786205555,-0.91465389722529,22.1767933708213,-0.1932,0.7341,0.651
-2.29344835297333,1.00695961857472,22.1767933708213,-0.1932,0.7341,0.651
2.06871270782847,-0.944476879038517,22.2105225876102,0.17,0.919,0.3557
-2.02938280145687,1.02626228992417,22.2105225876102,0.17,0.919,0.3557
2.08346970605457,-0.652972588722997,22.2442518043991,-0.4621,0.7816,-0.419
-2.05575847963739,0.735578881609357,22.2442518043991,-0.4621,0.7816,-0.419
2.07973885989653,-0.779485916729753,22.2779810211879,0.5952,0.5717,0.5646
-2.04698297888359,0.861842621308924,22.2779810211879,0.5952,0.5717,0.5646
2.07564055289489,-1.05585969877682,22.3117102379768,0.291,0.8894,0.3527
-2.03186118163842,1.13783282905434,22.3117102379768,0.291,0.8894,0.3527
2.07937139905292,-0.929346370770065,22.3454394547657,0.1328,0.8893,0.4376
-2.04063668239223,1.01156908935477,22.3454394547657,0.1328,0.8893,0.4376
2.06357977452726,-0.668589104965715,22.3791686715545,0.453,0.2669,0.8506
-2.0352613179594,0.75038939540416,22.3791686715545,0.453,0.2669,0.8506
2.14219286972684,-0.483700663911707,22.4128978883434,0.1173,0.9918,0.0508
-2.12118849207069,0.568784673214765,22.4128978883434,0.1173,0.9918,0.0508
2.23871169537192,-0.723029977497852,22.4466271051323,0.5005,0.569,0.6525
-2.20808171115073,0.811774328392568,22.4466271051323,0.5005,0.569,0.6525
2.16009860017234,-0.90791841855186,22.4803563219211,0.3655,0.6405,0.6754
-2.12215453703944,0.993379050581963,22.4803563219211,0.3655,0.6405,0.6754
2.18584816252676,-0.707747956822274,22.51408553871,-0.0866,0.9245,0.3712
-2.15586999205951,0.794395328123894,22.51408553871,-0.0866,0.9245,0.3712
2.44175084249337,-0.866971581890996,22.5478147554988,0.1339,-0.2292,0.9641
-2.40521621202323,0.963702170820585,22.5478147554988,0.1339,-0.2292,0.9641
2.27892574935354,-1.12249667873725,22.5815439722877,0.1248,0.6736,0.7285
-2.23232583369316,1.21252741703802,22.5815439722877,0.1248,0.6736,0.7285
2.02302316138,-0.963272786203993,22.6152731890766,-0.5807,0.2514,0.7744
-1.98297971632055,1.0432203107601,22.6152731890766,-0.5807,0.2514,0.7744
2.15094034503692,-0.683691394469849,21.746286,-0.9243,-0.3813,-0.0168
-2.12194977766539,0.768965169461835,21.746286,-0.9243,-0.3813,-0.0168
2.26843097890711,-0.654633798549646,21.7800152167889,-0.0618,0.6915,0.7198
-2.24050619982007,0.744618348442217,21.7800152167889,-0.0618,0.6915,0.7198
2.29365034962063,-0.956866497436933,21.8137444335777,0.6514,-0.1585,0.742
-2.25364701800404,1.04761659898723,21.8137444335777,0.6514,-0.1585,0.742
2.17615962801472,-0.985923913628338,21.8474736503666,0.6247,0.4588,0.6318
-2.1350905153543,1.07196323692067,21.8474736503666,0.6247,0.4588,0.6318
2.15700032590346,-0.696952503157181,21.8812028671555,0.3844,0.772,0.5062
-2.12747584197985,0.782457500057861,21.8812028671555,0.3844,0.772,0.5062
2.43009063008706,-0.567903970162077,21.9149320839443,0.6528,-0.1825,0.7352
-2.40549747522784,0.66440747018322,21.9149320839443,0.6528,-0.1825,0.7352
2.56217401429325,-0.840466897017216,21.9486613007332,0.2888,0.7982,-0.5286
-2.52660098112632,0.942023230431616,21.9486613007332,0.2888,0.7982,-0.5286
2.28908388558111,-0.969515789469919,21.982390517522,-0.0047,0.9785,0.2061
-2.24857950886846,1.0600736264786,21.982390517522,-0.0047,0.9785,0.2061
2.34511539283326,-0.708386101019425,22.0161197343109,-0.3194,0.8015,0.5056
-2.31498494659279,0.801387403737917,22.0161197343109,-0.3194,0.8015,0.5056
2.51118158919784,-0.892093669185246,22.0498489510998,-0.0066,0.9921,-0.1252
-2.47358935477248,0.99157440088117,22.0498489510998,-0.0066,0.9921,-0.1252
2.38790929014108,-1.13428983170716,22.0835781678886,-0.5203,0.1799,0.8348
-2.3407520744171,1.22865940209986,22.0835781678886,-0.5203,0.1799,0.8348
2.2218430937765,-0.950582263541335,22.1173073846775,-0.169,0.8652,0.472
-2.1821476662374,1.0384724049566,22.1173073846775,-0.169,0.8652,0.472
2.2688738462429,-0.70782029261499,22.1510366014664,-0.1777,0.9046,0.3874
-2.23882668126294,0.797780162743991,22.1510366014664,-0.1777,0.9046,0.3874
2.33550330921139,-0.523730570253498,22.1847658182552,-0.1842,0.3811,0.906
-2.31274789774735,0.616495400648375,22.1847658182552,-0.1842,0.3811,0.906
2.47095005201038,-0.754673196051386,22.2184950350441,0.0479,0.9989,-0.0009
-2.43887264981052,0.852658190821351,22.2184950350441,0.0479,0.9989,-0.0009
2.40432032157737,-0.938762826419812,22.2522242518329,-0.0301,0.5921,0.8053
-2.36495116974487,1.03394285032586,22.2522242518329,-0.0301,0.5921,0.8053
2.37473039908293,-0.664839299938837,22.2859534686218,0.4926,0.7475,0.4456
-2.34631380121812,0.759056855107115,22.2859534686218,0.4926,0.7475,0.4456
2.67179991210824,-0.665011941606269,22.3196826854107,-0.0405,0.99,0.1354
-2.64313988723682,0.771081830494183,22.3196826854107,-0.0405,0.99,0.1354
2.6787905261588,-0.96713621779108,22.3534119021995,0.739,0.0799,0.669
-2.63807078908895,1.07324445424002,22.3534119021995,0.739,0.0799,0.669
2.38172092539775,-0.966963396394849,22.3871411189884,0.3477,0.8993,0.2652
-2.34124462257519,1.06121929576678,22.3871411189884,0.3477,0.8993,0.2652
2.39793826920162,-0.66288391223456,22.900703,0.3178,0.5363,0.7819
-2.36958120828125,0.758028971320627,22.900703,0.3178,0.5363,0.7819
2.40324979365948,-0.744597413797849,22.9344322167889,0.2452,0.0339,0.9689
-2.37162830046806,0.839889328291378,22.9344322167889,0.2452,0.0339,0.9689
2.43751785909192,-1.03537789206886,22.9681614335777,0.2568,0.899,0.3548
-2.39426752880859,1.13180550151949,22.9681614335777,0.2568,0.899,0.3548
2.43220651436286,-0.953664302769839,23.0018906503666,0.8975,-0.0752,0.4345
-2.39222061970796,1.04994506405368,23.0018906503666,0.8975,-0.0752,0.4345
2.379534524446,-0.687000392434829,23.0356198671555,0.8349,0.5082,0.2112
-2.35022991868594,0.781391976890938,23.0356198671555,0.8349,0.5082,0.2112
2.54132948615686,-0.486915599991776,23.0693490839443,0.6867,0.6815,0.253
-2.51987903009396,0.587921791072894,23.0693490839443,0.6867,0.6815,0.253
2.68995069518199,-0.715656511617373,23.1030783007332,0.8967,-0.1591,0.4131
-2.65925560226278,0.822410254656648,23.1030783007332,0.8967,-0.1591,0.4131
2.52815564573539,-0.915741124331628,23.136807517522,0.0122,0.9792,0.2026
-2.4896064103597,1.01588025738852,23.136807517522,0.0122,0.9792,0.2026
2.52099950299623,-0.666989055748276,23.1705367343109,-0.4001,0.4461,0.8006
-2.49238066876244,0.767040739840134,23.1705367343109,-0.4001,0.4461,0.8006
2.70771771943047,-0.818111528285538,23.2042659510998,-0.6418,0.3104,0.7013
-2.67292073226556,0.92549256067047,23.2042659510998,-0.6418,0.3104,0.7013
2.64372304459242,-1.07703219035346,23.2379951678886,-0.4247,0.874,0.2363
-2.5986466032299,1.18165380170688,23.2379951678886,-0.4247,0.874,0.2363
2.45700500362964,-0.925910077273799,23.2717243846775,-0.8656,-0.3367,0.3707
-2.41810670071689,1.02320234704888,23.2717243846775,-0.8656,-0.3367,0.3707
2.49392287525179,-0.649176817270505,23.3054536014664,-0.7864,0.5527,0.2758
-2.46603627273802,0.748162381656521,23.3054536014664,-0.7864,0.5527,0.2758
