2.8244811855365,-4.08717511387001,20.7632273011162,0.5507,0.27,0.7898
4.7883632789819,-1.32448914204143,25.7192273011162,0.5507,0.27,0.7898
2.51773653806321,-3.74000298567752,20.8466539665438,0.4629,0.5443,0.6996
4.33035640980312,-1.25484380384661,25.8026539665438,0.4629,0.5443,0.6996
2.95436701831356,-3.5348549082873,20.9300806319713,0.1766,0.8976,0.4038
4.53379709703896,-0.817415184849681,25.8860806319713,0.1766,0.8976,0.4038
2.76841507813845,-3.58795730449083,21.0135072973989,0.5316,0.0308,0.8465
4.42517992776872,-0.977416119463087,25.9695072973989,0.5316,0.0308,0.8465
2.3249852987064,-3.7388288031377,21.0969339628264,-0.0237,0.8813,0.4719
4.18171291666046,-1.37756108431098,26.0529339628264,-0.0237,0.8813,0.4719
2.51093723888151,-3.68572640693417,21.180360628254,-0.0979,0.9056,-0.4127
4.29033008593071,-1.21756014969758,26.136360628254,-0.0979,0.9056,-0.4127
2.93752796545392,-3.55369111777008,21.2637872936815,-0.0248,0.3454,-0.9381
4.53295748087028,-0.842666947829287,26.2197872936815,-0.0248,0.3454,-0.9381
3.26951065859235,-3.75573963546102,21.347213959109,0.0232,0.9994,-0.0269
4.91725560801412,-0.784778593920309,26.303213959109,0.0232,0.9994,-0.0269
2.88832511654502,-3.9691511800141,21.4306406245366,-0.2882,0.3753,-0.881
4.7616552958138,-1.19298864727226,26.3866406245366,-0.2882,0.3753,-0.881
2.55634240097551,-3.7671029949009,21.5140672899641,-0.146,0.8521,-0.5026
4.37735736475334,-1.25087727074092,26.4700672899641,-0.146,0.8521,-0.5026
2.95926614364569,-3.80728912893695,21.5974939553917,0.4411,0.8754,-0.1977
4.7122777009891,-1.02330126991517,26.5534939553917,0.4411,0.8754,-0.1977
2.68148413857173,-4.1366388357637,21.6809206208192,0.8734,-0.1594,-0.4601
4.71037010011344,-1.45414977320685,26.6369206208192,0.8734,-0.1594,-0.4601
2.25840138301178,-3.93869019366928,21.7643472862468,0.5834,0.8112,-0.0402
4.25880387164482,-1.57360949137935,26.7203472862468,0.5834,0.8112,-0.0402
2.53618338808574,-3.60934048684253,21.8477739516743,0.9974,-0.0505,0.0508
4.26071147252048,-1.14276098808767,26.8037739516743,0.9974,-0.0505,0.0508
2.99325522540275,-3.76973156356678,21.9312006171019,0.4146,0.0875,-0.9058
4.71426919268631,-0.97268642667683,26.8872006171019,0.4146,0.0875,-0.9058
3.07271275056631,-3.74122824058907,22.0146272825294,0.0815,0.8387,-0.5384
4.75695363927846,-0.89985802737401,26.9706272825294,0.0815,0.8387,-0.5384
2.57266903456104,-3.71769299967066,22.098053947957,0.0708,-0.2069,-0.9758
4.35819577201411,-1.20249607649579,27.054053947957,0.0708,-0.2069,-0.9758
2.49321150939749,-3.74619632264836,22.1814806133845,-0.5753,0.7465,0.3343
4.31551132542196,-1.27532447579861,27.1374806133845,-0.5753,0.7465,0.3343
2.98279818039718,-3.7529989463817,19.282351,-0.1725,0.9658,0.1937
4.69551469416275,-0.966554619990308,24.238351,-0.1725,0.9658,0.1937
3.13591841578763,-4.17597635666133,19.3657776654275,0.6405,0.7175,-0.2738
5.08426819887387,-1.19288713790964,24.3217776654275,0.6405,0.7175,-0.2738
2.65366502139528,-4.29650718037114,19.4492043308551,-0.1906,0.9784,0.0803
4.7915548067327,-1.59465185254785,24.4052043308551,-0.1906,0.9784,0.0803
-0.105360518701142,-0.587594160443878,22.029808,0.5948,-0.326,0.7348
-0.167627445454012,-0.572947445948825,25.411167856,0.5948,-0.326,0.7348
-0.32295892701736,-0.798502007843184,22.0888049390251,0.5729,0.8076,0.14
-0.406543513028575,-0.759361769569805,25.4701647950251,0.5729,0.8076,0.14
-0.534537372229261,-0.580212034306801,22.1478018780503,0.8546,0.2175,0.4715
-0.593550588123606,-0.51968635387349,25.5291617340503,0.8546,0.2175,0.4715
-0.316938963913043,-0.369304186907496,22.2067988170754,-0.5769,0.8107,-0.0997
-0.354634520549043,-0.33327203025251,25.5881586730754,-0.5769,0.8107,-0.0997
-0.242361373832308,-0.69554968850951,22.2657957561006,0.2829,0.9558,-0.0802
-0.315392897501712,-0.665624312143896,25.6471556121006,0.2829,0.9558,-0.0802
-0.357613497362837,-0.615392038403586,22.3247926951257,-0.9583,0.2818,-0.0479
-0.421406617021013,-0.573595011796219,25.7061525511257,-0.9583,0.2818,-0.0479
-0.503460376813247,-0.383245822276126,22.3837896341509,-0.4974,0.8667,-0.0374
-0.541576881095265,-0.327176088943195,25.7651494901509,-0.4974,0.8667,-0.0374
-0.388208422165879,-0.463403579519708,22.442786573176,-0.5427,0.8338,-0.1016
-0.435563340953179,-0.4192054777432,25.824146429176,-0.5427,0.8338,-0.1016
-0.273151265848388,-0.69498691445349,22.5017835122011,-0.9508,0.3038,0.06
-0.345945813776187,-0.66177029188903,25.8831433682011,-0.9508,0.3038,0.06
-0.179999918540497,-0.902181418163229,22.5607804512263,-0.0508,0.9971,0.0562
-0.275498765879057,-0.877742394984267,25.9421403072263,-0.0508,0.9971,0.0562
-0.418671981166497,-0.837189775604122,22.6197773902514,-0.8224,0.5113,0.2496
-0.505846633434276,-0.787586269327474,26.0011372462514,-0.8224,0.5113,0.2496
-0.511823052453568,-0.629995333639886,22.6787743292766,-0.0455,0.9957,0.0808
-0.576293413501862,-0.571614257157126,26.0601341852766,-0.0455,0.9957,0.0808
-0.37377626507642,-0.833954036183339,22.7377712683017,-0.0717,0.8854,-0.4592
-0.460862436459874,-0.789172886927338,26.1191311243017,-0.0717,0.8854,-0.4592
-0.604415083832755,-0.827340369230539,22.7967682073268,-0.1421,0.5088,0.8491
-0.689469542461602,-0.757919144857068,26.1781280633269,-0.1421,0.5088,0.8491
-0.716938925978274,-0.581692083517387,22.855765146352,0.1167,0.9928,0.0287
-0.775063368007131,-0.501641185692645,26.237125002352,0.1167,0.9928,0.0287
-0.48630010722194,-0.588305750470187,22.9147620853771,-0.1468,0.7947,0.589
-0.546456262005403,-0.532894927762915,26.2961219413771,-0.1468,0.7947,0.589
-0.509394790135185,-0.874275943877362,22.9737590244023,-0.218,0.4671,0.8569
-0.600016787842519,-0.814752313630753,26.3551188804023,-0.218,0.4671,0.8569
-0.415812119506009,-0.921511036659225,23.0327559634274,-0.0262,0.9878,0.1534
-0.512025451172869,-0.87172945732266,26.4141158194274,-0.0262,0.9878,0.1534
-0.369414430001947,-0.623025033210815,23.0917529024526,0.1523,0.2149,0.9647
-0.433956522626175,-0.579921502939146,26.4731127584526,0.1523,0.2149,0.9647
-0.4629967628648,-0.575789726153634,23.1507498414777,0.0388,0.7814,0.6228
-0.521947500541393,-0.522944182342583,26.5321096974777,0.0388,0.7814,0.6228
-0.604683137295309,-0.830371332275713,23.2097467805028,-0.5094,0.8193,0.2631
-0.690060366038662,-0.760904026285331,26.5911066365028,-0.5094,0.8193,0.2631
-0.855467408607879,-0.771951533063261,23.268743719528,-0.8131,-0.1426,0.5643
-0.933154086484626,-0.67598602608785,26.650103575528,-0.8131,-0.1426,0.5643
-0.742237919661698,-0.500729570969874,23.3277406585531,-0.3105,0.8775,0.3655
-0.791554244515745,-0.418436507270229,26.7091005145531,-0.3105,0.8775,0.3655
-0.491453648349128,-0.559149370182326,23.3867375975783,-0.886,0.0104,0.4635
-0.54846052406978,-0.503354507467711,26.7680974535783,-0.886,0.0104,0.4635
-0.692853897944428,-0.753800340459257,23.4457345366034,-0.9961,-0.066,0.0578
-0.769531959907797,-0.675338463182532,26.8270943926034,-0.9961,-0.066,0.0578
-0.661623398522877,-0.581576168500497,23.5047314756286,-0.5256,0.6633,0.5328
-0.720052995091129,-0.507444623088052,26.8860913316286,-0.5256,0.6633,0.5328
-0.507562861542423,-0.37562310025267,23.5637284146537,-0.0235,-0.3649,0.9308
-0.544840193144827,-0.319158167362936,26.9450882706537,-0.0235,-0.3649,0.9308
-0.538793360963974,-0.54784727221143,23.6227253536788,0.2329,0.6436,0.7291
-0.594319157961495,-0.487052007457416,27.0040852096788,0.2329,0.6436,0.7291
-0.0175274472005079,-0.587931733316678,23.681722292704,0.1778,0.4877,0.8547
-0.0803347289261468,-0.582681101267651,27.063082148704,0.1778,0.4877,0.8547
0.236458562555819,-0.648613292891717,23.7407192317291,0.0641,-0.1226,0.9904
0.165700343999292,-0.670190459138532,27.1220790877291,0.0641,-0.1226,0.9904
0.119760171657409,-0.915729517252877,23.7997161707543,0.7273,0.5966,-0.3394
0.0210908228798617,-0.923286642746363,27.1810760267543,0.7273,0.5966,-0.3394
-0.134225730961259,-0.855048126561,23.8587131097794,-0.2537,0.9279,0.2732
-0.224944161593249,-0.835777464252698,27.2400729657794,-0.2537,0.9279,0.2732
0.14960754104854,-0.803713984477867,23.9177100488046,-0.0318,0.9994,0.0131
0.0627523546563197,-0.815107800949646,27.2990699048046,-0.0318,0.9994,0.0131
0.245443435807555,-1.07804356426966,23.9767069878297,0.1906,0.9638,-0.1867
0.128685175708762,-1.09811681172681,27.3580668438297,0.1906,0.9638,-0.1867
-0.0419283454167729,-1.17712567327808,24.0357039268548,-0.8713,0.4693,0.1434
-0.167638503934716,-1.16588171305596,27.4170637828548,-0.8713,0.4693,0.1434
-0.137764240175787,-0.902796093486291,24.09470086588,0.0343,0.9938,0.1062
-0.233571324987158,-0.882872702278796,27.47606072188,0.0343,0.9938,0.1062
0.226221042587525,-0.905077132317977,24.1536978049051,-0.6099,0.7646,0.2085
0.128080310412033,-0.924086581246085,27.5350576609051,-0.6099,0.7646,0.2085
0.217708947202684,-1.01321772991462,24.2126947439303,-0.8266,0.514,0.2294
0.108046183211157,-1.03069557881993,27.5940545999303,-0.8266,0.514,0.2294
-0.0352691215924982,-1.16809757575655,24.2716916829554,-0.1834,0.9823,0.0369
-0.160051515332749,-1.15761797233195,27.6530515389554,-0.1834,0.9823,0.0369
-0.026757026207657,-1.05995697815991,24.3306886219805,-0.8264,0.1993,0.5266
-0.140017388131873,-1.05100897475811,27.7120484779806,-0.8264,0.1993,0.5266
0.216435090523177,-0.930022212471672,24.3896855610057,-0.4585,0.8445,0.2767
0.115681447887718,-0.947841372126729,27.7710454170057,-0.4585,0.8445,0.2767
0.499897261521615,-0.951970680746519,24.4486825000308,-0.0919,0.951,0.2952
0.395167852911567,-0.999993908532978,27.8300423560308,-0.0919,0.951,0.2952
0.437825382952766,-1.22972647012268,24.507679439056,-0.0816,0.2897,0.9536
0.303732823221416,-1.26951354044613,27.889039295056,-0.0816,0.2897,0.9536
0.154363104816668,-1.20777783296467,24.5666763780811,0.0749,0.9965,0.0379
0.0242463297452387,-1.21736082466267,27.9480362340811,0.0749,0.9965,0.0379
0.402780345422064,-1.13759344377647,24.6256733171063,0.0549,0.3048,0.9508
0.278747083227565,-1.17415966272635,28.0070331731063,0.0549,0.3048,0.9508
0.381372208087112,-1.41419353460083,24.6846702561314,-0.2135,0.3436,0.9145
0.227866009150519,-1.44688119632603,28.0660301121314,-0.2135,0.3436,0.9145
0.100554765738858,-1.44314043035816,24.7436671951565,-0.1642,0.8195,0.5491
-0.0544365856008959,-1.44561482449345,28.1250270511565,-0.1642,0.8195,0.5491
0.12196290307381,-1.16654033953379,24.8026641341817,0.1864,-0.1984,0.9622
-0.00355551152385001,-1.17289329089376,28.1840239901817,0.1864,-0.1984,0.9622
0.450577077190822,-1.18794831642078,24.8616610732068,0.3232,0.8015,0.5032
0.320881518290713,-1.22933964232683,28.2430209292068,0.3232,0.8015,0.5032
0.567412766058838,-1.22498870466627,24.920658012232,0.4374,0.5596,0.7039
0.433083201128835,-1.27866864923892,28.302017868232,0.4374,0.5596,0.7039
0.323848032368924,-1.3880829711059,24.9796549512571,0.4755,0.1457,0.8676
0.173465865346545,-1.41476551990179,28.3610148072571,0.4755,0.1457,0.8676
0.207012619521728,-1.35104264460592,25.0386518902823,0.1856,0.9178,0.3509
0.0612644503379665,-1.36543660391458,28.4200117462823,0.1856,0.9178,0.3509
0.507197577197277,-1.32033695748889,25.0976488293074,-0.9399,0.2439,0.2391
0.363011563023428,-1.36702657938209,28.4790086853074,-0.9399,0.2439,0.2391
0.633509641623833,-1.59628904681691,25.1566457683325,-0.6198,0.7788,0.0968
0.459071988760297,-1.65490969425938,28.5380056243325,-0.6198,0.7788,0.0968
0.357061631182713,-1.72188210425492,25.2156427073577,-0.4458,0.8895,-0.1002
0.170772732550696,-1.75020217781643,28.5970025633577,-0.4458,0.8895,-0.1002
0.230749459618498,-1.44592984604373,25.2746396463828,-0.986,-0.1369,-0.0951
0.074712218361499,-1.46231888356192,28.6559995023828,-0.986,-0.1369,-0.0951
0.5529384552266,-1.50484149433779,25.333636585408,-0.5229,0.8486,-0.0803
0.388748113206524,-1.55536611858029,28.714996441408,-0.5229,0.8486,-0.0803
0.465688458361461,-1.67496976634474,25.3926335244331,-0.8907,0.1489,-0.4296
0.283795508084643,-1.71518208013348,28.7739933804331,-0.8907,0.1489,-0.4296
0.182983436956117,-1.68467916573109,25.4516304634583,-0.9438,0.0852,-0.3194
0.00167455676635404,-1.69458668279564,28.8329903194583,-0.9438,0.0852,-0.3194
0.270233433821255,-1.51455089372413,25.5106274024834,-0.4504,0.8928,-0.0077
0.106627161888236,-1.53477072124245,28.8919872584834,-0.4504,0.8928,-0.0077
-0.15193826865351,-0.884231615208874,25.5696243415085,-0.9098,-0.0077,0.4151
-0.24567760853145,-0.862898197635496,28.9509841975085,-0.9098,-0.0077,0.4151
-0.191754644874507,-1.18445475753203,25.6286212805337,-0.4687,0.8197,0.3292
-0.317388877546426,-1.15713750992742,29.0099811365337,-0.4687,0.8197,0.3292
-0.49283998718625,-1.14365151020512,25.6876182195588,-0.6093,0.7478,0.2637
-0.612379846199816,-1.0843527810323,29.0689780755588,-0.6093,0.7478,0.2637
-0.453023549219751,-0.84342809186115,25.746615158584,-0.9392,0.1287,0.3185
-0.540668486259952,-0.790113200910839,29.127975014584,-0.9392,0.1287,0.3185
-0.374167617406794,-1.09786672157431,22.461841,0.3544,0.7613,-0.543
-0.489489844117821,-1.05152861908828,25.843200856,0.3544,0.7613,-0.543
-0.640269572155331,-1.14728893938582,22.5208379390251,-0.1186,0.8657,0.4863
-0.759352262341614,-1.07219456123489,25.9021977950251,-0.1186,0.8657,0.4863
-0.709700973557662,-0.852678855776398,22.5798348780503,-0.1509,0.9638,0.2198
-0.796862187260901,-0.77184671889606,25.9611947340503,-0.1509,0.9638,0.2198
-0.443598681042804,-0.803256423689575,22.6388318170754,-0.0599,0.9874,-0.1463
-0.526999410282676,-0.751180599844799,26.0201916730754,-0.0599,0.9874,-0.1463
-0.420398968610249,-1.16255119720442,22.6978287561006,-0.5177,0.2792,0.8087
-0.542376940587977,-1.11089505951212,26.0791886121006,-0.5177,0.2792,0.8087
-0.540083855802418,-1.26072580780104,22.7568256951257,-0.0272,0.9675,0.2514
-0.671879287802776,-1.19569994412295,26.1381855511257,-0.0272,0.9675,0.2514
-0.740432693118559,-1.03216131142282,22.8158226341509,-0.3933,0.6446,0.6556
-0.846621862211912,-0.947010542846126,26.1971824901509,-0.3933,0.6446,0.6556
-0.620747974809552,-0.93398680796386,22.874819573176,-0.5503,0.3439,0.7609
-0.717119694374329,-0.862205746687615,26.256179429176,-0.5503,0.3439,0.7609
-0.469477471749409,-1.18235326563021,22.9338165122011,-0.1618,0.9566,0.2422
-0.593292486822499,-1.12533211378091,26.3151763682011,-0.1618,0.9566,0.2422
-0.545936544435653,-1.47603515606433,22.9928134512263,-0.3283,0.0286,0.9441
-0.700736187500255,-1.40914700724084,26.3741733072263,-0.3283,0.0286,0.9441
-0.838979312203833,-1.40168455820551,23.0518103902514,-0.2671,0.6465,0.7146
-0.984141231359488,-1.30386806225018,26.4331702462514,-0.2671,0.6465,0.7146
-0.762520577283912,-1.10800288204671,23.1108073292766,-0.3462,0.7633,0.5455
-0.876697889436164,-1.02005334569491,26.4921671852766,-0.3462,0.7633,0.5455
-0.656742008496923,-1.36555544987172,23.1698042683017,-0.25,-0.2361,0.939
-0.799084355909519,-1.28744551128954,26.5511641243017,-0.25,-0.2361,0.939
-0.924362885984536,-1.37113276257587,23.2288012073268,0.0221,0.9098,0.4145
-1.06576563117262,-1.26435573198599,26.6101610633269,0.0221,0.9098,0.4145
-0.992116640808032,-1.09811477168385,23.287798146352,-0.2019,0.072,0.9767
-1.10391786545461,-0.985655531658305,26.669158002352,-0.2019,0.072,0.9767
-0.72449593220358,-1.09253756611735,23.3467950853771,-0.6843,0.0297,0.7286
-0.837236769568727,-1.00874539941418,26.7281549413771,-0.6843,0.0297,0.7286
-0.654463896057456,-1.38236499055173,23.4057920244023,-0.7119,0.6797,-0.1766
-0.798617919957755,-1.30440230614184,26.7871518804023,-0.7119,0.6797,-0.1766
-0.648022541098041,-1.56492746809213,23.4647889634274,-0.751,-0.4501,-0.4831
-0.811747483054151,-1.48660593901533,26.8461488194274,-0.751,-0.4501,-0.4831
-0.889578448621342,-1.42049491786721,23.5237859024526,-0.7897,0.5724,-0.2208
-1.03646256966576,-1.31715639527733,26.9051457584526,-0.7897,0.5724,-0.2208
-0.896019465814435,-1.2379322260515,23.5827828414777,-0.9273,0.3521,0.1266
-1.02333264781493,-1.13495258549918,26.9641426974777,-0.9273,0.3521,0.1266
-0.791335641977568,-1.50845759943021,23.6417797805028,-0.9716,-0.128,0.1992
-0.948195647217035,-1.41512594568168,27.0231396365028,-0.9716,-0.128,0.1992
-1.05727759605512,-1.64840878294809,23.700776719528,-0.4551,0.8707,0.1864
-1.22758546075363,-1.52581826157861,27.082136575528,-0.4551,0.8707,0.1864
-1.20030885701484,-1.38040879234213,23.7597736585531,-0.8909,-0.0055,0.4542
-1.34111996473978,-1.24405266222138,27.1411335145531,-0.8909,-0.0055,0.4542
-0.934367071820448,-1.24045771596191,23.8187705975783,-0.8644,0.3967,0.3089
-1.0617303305804,-1.13336043477678,27.2001304535783,-0.8644,0.3967,0.3089
-0.891914988464914,-1.5548569895833,23.8777675366034,-0.0003,0.9881,-0.1539
-1.05316225659522,-1.45049710995495,27.2591273926034,-0.0003,0.9881,-0.1539
-0.987449415942115,-1.49002977381397,23.9367644756286,-0.8472,0.3922,0.3584
-1.14121181192538,-1.37582000138772,27.3181243316286,-0.8472,0.3922,0.3584
-1.08268560003878,-1.21747436974106,23.9957614146537,0.1139,0.9899,0.0848
-1.20673819956841,-1.09463914931366,27.3771212706537,0.1139,0.9899,0.0848
-0.987151341444741,-1.28230169264805,24.0547583536788,-0.6628,0.6803,0.3129
-1.11868882361546,-1.16931634633321,27.4361182096788,-0.6628,0.6803,0.3129
-0.904711541331878,-1.54100002911272,24.113755292704,-0.884,0.4363,0.1678
-1.06440267045565,-1.43535048607349,27.495115148704,-0.884,0.4363,0.1678
-0.983443681162794,-1.79232181176422,24.1727522317291,-0.2383,0.9712,-0.0071
-1.16957391447474,-1.67680523899618,27.5541120877291,-0.2383,0.9712,-0.0071
-1.22551529935135,-1.64779317163482,24.2317491707543,-0.9425,-0.0136,0.334
-1.3947914696516,-1.50720497664308,27.6131090267543,-0.9425,-0.0136,0.334
-1.14678309777493,-1.3964711129625,24.2907461097794,-0.6323,0.7222,0.2804
-1.28962013470762,-1.26574995589085,27.6721059657794,-0.6323,0.7222,0.2804
-0.146433340262212,-1.1340643076932,24.3497430488046,-0.7562,0.6278,0.1847
-0.266936044755362,-1.111885661898,27.7311029048046,-0.7562,0.6278,0.1847
-0.354352501980484,-1.32183016869772,24.4087399878297,-0.9541,-0.1583,0.2541
-0.493752271298186,-1.2763265197931,27.7900998438297,-0.9541,-0.1583,0.2541
-0.575594241146172,-1.15746850054805,24.4677369268548,-0.4953,0.8383,0.228
-0.696137421045096,-1.08923585656289,27.8490967828548,-0.4953,0.8383,0.228
-0.3676750794279,-0.969702639543529,24.52673386588,-0.908,0.1264,0.3993
-0.469321194502272,-0.924794998667791,27.90809372188,-0.908,0.1264,0.3993
-0.117037006877307,-1.12763468900127,23.08466,-0.4153,0.721,0.5548
-0.237020510312767,-1.10863832267736,26.466019856,-0.4153,0.721,0.5548
-0.0495026062338821,-1.08805965077143,23.1436569390251,-0.1508,0.9885,-0.01
-0.165639337680092,-1.07651656813711,26.5250167950251,-0.1508,0.9885,-0.01
-0.34564458308629,-1.06639898330555,23.2026538780503,-0.5625,0.0901,0.8219
-0.457763550189689,-1.02329345816815,26.5840137340503,-0.5625,0.0901,0.8219
-0.413178814846554,-1.10597391439773,23.2616508170754,-0.1555,0.9132,0.3766
-0.529144543445148,-1.05541512425607,26.6430106730754,-0.1555,0.9132,0.3766
-0.124292769722591,-1.15874143408547,23.3206477561006,-0.6599,0.5678,0.4921
-0.24756299886743,-1.13879013222961,26.7020076121006,-0.6599,0.5678,0.4921
-0.0633809195547356,-1.42671206353976,23.3796446951257,-0.9073,0.0708,0.4144
-0.215673330120276,-1.41173987259987,26.7610045511257,-0.9073,0.0708,0.4144
-0.358057409471238,-1.46166207944089,23.4386416341509,-0.3185,0.9135,0.2532
-0.512397735714141,-1.41495925856109,26.8200014901509,-0.3185,0.9135,0.2532
-0.418968983618274,-1.1936915117321,23.497638573176,-0.3783,-0.0176,0.9255
-0.544287136631751,-1.14200960911571,26.878998429176,-0.3783,-0.0176,0.9255
-0.151961740627737,-1.2115286314478,23.5566355122011,-0.1229,0.576,0.8082
-0.280721285836392,-1.18831374439193,26.9379953682011,-0.1229,0.576,0.8082
-0.335848381447442,-1.22941853900612,23.6156324512263,-0.09,0.757,0.6472
-0.465466459901175,-1.18642532596024,26.9969923072263,-0.09,0.757,0.6472
-0.576600297467947,-1.24758895078393,23.6746293902514,-0.0301,-0.0628,0.9976
-0.706780468605075,-1.17873129353414,27.0559892462514,-0.0301,-0.0628,0.9976
-0.392713825531404,-1.22969915036328,23.7336263292766,0.0186,0.8665,0.4988
-0.522035473917508,-1.18061980041815,27.1149861852766,0.0186,0.8665,0.4988
-0.156502544873416,-1.18976051175862,23.7926232683017,0.8223,0.5367,0.1892
-0.282906862577142,-1.16618473193519,27.1739831243017,0.8223,0.5367,0.1892
-0.00223272500342224,-1.08580019285011,23.8516202073268,0.8526,0.3364,0.3999
-0.118399066060549,-1.07932789503944,27.2329800633269,0.8526,0.3364,0.3999
-0.218783158826006,-1.19218443105771,23.910617146352,0.5181,0.7955,0.3141
-0.345089289932059,-1.16193079407358,27.291977002352,0.5181,0.7955,0.3141
-0.373052978695999,-1.29614474996622,23.9696140853771,0.8451,-0.442,0.3007
-0.509597086448652,-1.24878763096934,27.3509739413771,0.8451,-0.442,0.3007
-0.133382125588269,-1.32520167865067,24.0286110244023,0.787,0.5895,0.1819
-0.274411196298901,-1.30332220723458,27.4099708804023,0.787,0.5895,0.1819
-0.284714171792847,-1.48262910314506,24.0876079634274,0.8295,0.4606,0.3158
-0.44171899273454,-1.44365354173707,27.4689678194274,0.8295,0.4606,0.3158
-0.543354038089665,-1.34664556188361,24.1466049024526,0.9055,-0.1522,0.3962
-0.684323994522927,-1.28077654201244,27.5279647584526,0.9055,-0.1522,0.3962
-0.392021991885087,-1.18921813738922,24.2056018414777,-0.8908,0.4152,-0.1848
-0.517016198087288,-1.14044520750995,27.5869616974777,-0.8908,0.4152,-0.1848
-0.188296560794346,-1.39564709150344,24.2645987805028,0.2394,0.9668,-0.0898
-0.336547941149752,-1.36748743399596,27.6459586365028,0.2394,0.9668,-0.0898
-0.128147978928828,-1.28941780193297,24.323595719528,0.0731,0.9969,0.0279
-0.265378271378369,-1.26830380647754,27.704955575528,0.0731,0.9969,0.0279
-0.311256133754176,-1.05216299952034,24.3825926585531,-0.2233,0.9727,0.0629
-0.422049288156661,-1.01281871858971,27.7639525145531,-0.2233,0.9727,0.0629
-0.371404608482035,-1.15839245797397,24.4415895975783,0.8619,0.5018,0.0734
-0.493218869475715,-1.11200252548534,27.8229494535783,0.8619,0.5018,0.0734
-0.22678678780699,-1.40037268282254,24.5005865366034,-0.0523,0.9942,-0.0941
-0.375322834046856,-1.3680674940084,27.8819463926034,-0.0523,0.9942,-0.0941
-0.337463894521824,-1.60988277153531,24.5595834756286,0.5233,0.8283,-0.2
-0.507781859222834,-1.56453251856145,27.9409433316286,0.5233,0.8283,-0.2
-0.509227223119269,-1.39764018379589,24.6185804146537,0.7244,0.6848,-0.0792
-0.655849451838086,-1.33512993549334,27.9999402706537,0.7244,0.6848,-0.0792
-0.398550223542094,-1.18812992619995,24.6775773536788,-0.0086,0.9961,0.0877
-0.523390515114437,-1.13866473156307,28.0589372096788,-0.0086,0.9961,0.0877
-0.351919210534195,-1.43852920914321,24.736574292704,0.6479,0.1669,-0.7432
-0.503819589184731,-1.39261596926609,28.117934148704,0.6479,0.1669,-0.7432
-0.527177499911235,-1.31159294690096,24.7955712317291,0.4774,0.7051,-0.5244
-0.664489740563607,-1.24765602609802,28.1769310877291,0.4774,0.7051,-0.5244
-0.530968058312464,-1.05168208217475,24.8545681707543,0.6707,0.6042,-0.4301
-0.640448425402985,-0.988831681993633,28.2359280267543,0.6707,0.6042,-0.4301
-0.355709937818585,-1.17861845155466,24.9135651097794,0.7645,-0.3457,-0.5441
-0.479778453401325,-1.13379171361403,28.2949249657794,0.7645,-0.3457,-0.5441
-0.336153594192498,-1.4527780469964,24.9725620488046,0.346,0.8228,-0.4508
-0.489669087104028,-1.40846990662133,28.3539219048046,0.346,0.8228,-0.4508
-0.253033680033563,-1.53226712646277,25.0315589878297,0.5702,0.0454,-0.8203
-0.41553157510089,-1.49639637134149,28.4129188438297,0.5702,0.0454,-0.8203
-0.377351798253954,-1.27707621455817,25.0905559268548,0.6364,0.1694,-0.7525
-0.51183091957921,-1.22936859696286,28.4719157828548,0.6364,0.1694,-0.7525
-0.460471543529728,-1.19758702795414,25.14955286588,0.4888,0.7398,-0.4624
-0.585968252205131,-1.14144204379037,28.53091272188,0.4888,0.7398,-0.4624
-0.148174609204588,-1.25519938913053,25.2085498049051,0.7796,0.3789,0.4986
-0.281628607983781,-1.23213901344439,28.5899096609051,0.7796,0.3789,0.4986
-0.112107633180566,-1.43324383379187,25.2675467439303,0.1173,0.9903,-0.0752
-0.264819202368811,-1.41302045228528,28.6489065999303,0.1173,0.9903,-0.0752
-0.412331976753223,-1.47986762484973,25.3265436829554,0.4329,0.8259,0.3612
-0.568308690533705,-1.42725298331987,28.7079035389554,0.4329,0.8259,0.3612
-0.448398845639587,-1.30182334907156,25.3855406219805,0.6391,0.2245,0.7356
-0.585118007696347,-1.24637172385619,28.7669004779805,0.6391,0.2245,0.7356
-0.15062649100752,-1.44039588039315,23.480556,0.1976,0.9606,0.1954
-0.303882189163781,-1.41600997424306,26.861915856,0.1976,0.9606,0.1954
-0.2762082367598,-1.69387274518063,23.5395529390251,0.828,0.0402,0.5592
-0.455864674155824,-1.65459459257442,26.9209127950251,0.828,0.0402,0.5592
-0.551551897231301,-1.56678887980821,23.5985498780503,0.7234,0.5363,0.4348
-0.71602982973849,-1.49877889368472,26.9799097340503,0.7234,0.5363,0.4348
-0.425970044341362,-1.3133121839039,23.6575468170754,0.5763,0.7302,0.3672
-0.564047256294118,-1.26019445473057,27.0389066730754,0.5763,0.7302,0.3672
-0.180649197313184,-1.35978323996869,23.7165437561006,0.9013,-0.1879,0.3904
-0.325107096088211,-1.33264772849494,27.0979036121006,0.9013,-0.1879,0.3904
0.0598056815717499,-1.54562620425357,23.7755406951257,0.5464,0.8192,0.1744
-0.10591757584302,-1.54315214737598,27.1569005511257,0.5464,0.8192,0.1744
-0.126188915350455,-1.78598542863888,23.8345376341509,0.008,0.9949,-0.1002
-0.316562521960824,-1.76223033777016,27.2158974901509,0.008,0.9949,-0.1002
-0.366643901373047,-1.60014229547083,23.893534573176,0.2598,0.9625,-0.0779
-0.535752130658343,-1.5517257395119,27.274894429176,0.2598,0.9625,-0.0779
-0.101598788007679,-1.62919105974093,23.9525315122011,-0.3745,0.8224,0.4283
-0.275336776099107,-1.60896720991814,27.3338913682011,-0.3745,0.8224,0.4283
-0.175595792044302,-1.91269727452552,24.0115284512263,0.5751,0.5897,-0.567
-0.379243758861539,-1.88292828262937,27.3928883072263,0.5751,0.5897,-0.567
-0.469967794541077,-1.83687898206757,24.0705253902514,0.0696,0.9843,-0.162
-0.663813365186669,-1.77604784250508,27.4518852462514,0.0696,0.9843,-0.162
-0.395970683366796,-1.55337293616615,24.1295223292766,0.327,0.929,-0.1733
-0.559906293971908,-1.50208694917107,27.5108821852766,0.327,0.929,-0.1733
-0.0782619772024136,-1.62254497814955,24.1885192683017,0.7115,0.358,-0.6047
-0.251422816280876,-1.60485628971798,27.5698791243017,0.7115,0.358,-0.6047
-0.00973525554515193,-1.74826033869292,24.2475162073268,0.0016,0.9967,-0.0816
-0.196740869514206,-1.7371822061344,27.6288760633268,0.0016,0.9967,-0.0816
-0.286640832586633,-1.8731190577578,24.306513146352,0.2922,0.4107,-0.8637
-0.485416492292785,-1.83169560802324,27.687873002352,0.2922,0.4107,-0.8637
-0.355167109339914,-1.74740365182228,24.3655100853771,0.3198,0.6335,-0.7046
-0.540097991852695,-1.69936969407937,27.7468699413771,0.3198,0.6335,-0.7046
-0.0773047069640785,-1.65739534611104,24.4245070244023,0.2206,0.9495,-0.2233
-0.254199984023476,-1.63960901411031,27.8058668804023,0.2206,0.9495,-0.2233
0.138442783696763,-1.87085155314037,24.4835039634274,0.9555,-0.2061,-0.211
-0.0625305907712947,-1.87492449540328,27.8648638194274,0.9555,-0.2061,-0.211
-0.0731917041013819,-2.08713944857795,24.5425009024526,0.4666,0.8546,-0.2281
-0.296092633605276,-2.06732611256285,27.9238607584526,0.4666,0.8546,-0.2281
-0.288939363645385,-1.87368334868627,24.6014978414777,0.9242,0.364,-0.1153
-0.487762206234674,-1.83201071972221,27.9828576974777,0.9242,0.364,-0.1153
-0.0165180283725897,-1.88548663315404,24.6604947805028,0.9158,-0.2017,0.3472
-0.218167732317145,-1.87289495958515,28.0418546365028,0.9158,-0.2017,0.3472
-0.14359465468936,-2.11081858423588,24.719491719528,0.2559,0.7669,0.5886
-0.368625048138268,-2.0833362892956,28.100851575528,0.2559,0.7669,0.5886
-0.415935952285831,-2.03771768442452,24.7784886585531,0.2482,-0.406,0.8795
-0.631581181549145,-1.98151489747954,28.1598485145531,0.2482,-0.406,0.8795
-0.28885943310672,-1.81238556445952,24.8374855975783,0.9542,0.2158,-0.2072
-0.48112395418035,-1.77107338839187,28.2188454535783,0.9542,0.2158,-0.2072
-0.0133198096813121,-1.86464471120901,24.8964825366034,0.6008,0.4954,-0.6274
-0.212757816482686,-1.85251489275935,28.2778423926034,0.6008,0.4954,-0.6274
0.163133718420696,-1.95533168111623,24.9554794756286,0.4817,-0.2981,-0.8241
-0.0470206625711727,-1.96156153371592,28.3368393316286,0.4817,-0.2981,-0.8241
-0.0725473981839805,-2.10340424699922,25.0144764146537,0.2048,0.7742,-0.5989
-0.29719233807441,-2.0835664773334,28.3958362706537,0.2048,0.7742,-0.5989
-0.249000926285989,-2.012717277092,25.0734733536788,0.4431,0.0472,-0.8952
-0.462929491985924,-1.97451983637683,28.4548332096788,0.4431,0.0472,-0.8952
0.030237389534722,-2.01750485125152,25.132470292704,0.2352,0.9477,0.2159
-0.185806501120466,-2.00915804970407,28.513830148704,0.2352,0.9477,0.2159
0.0119325199017345,-2.31648185128985,25.1914672317291,-0.5287,0.8377,-0.1368
-0.235996422000551,-2.30446007585061,28.5728270877291,-0.5287,0.8377,-0.1368
-0.290829806740405,-2.30198145230368,25.2504641707543,0.7412,0.5888,0.3223
-0.535469117054259,-2.25764775993066,28.6318240267543,0.7412,0.5888,0.3223
-0.272524829969759,-2.00300462114851,25.3094611097794,0.1173,0.9911,-0.0629
-0.485279107721846,-1.96234591316134,28.6908209657794,0.1173,0.9911,-0.0629
0.0310446556761896,-2.08449430905031,25.3684580488045,0.3784,0.8648,0.3301
-0.192171651153187,-2.07584930850056,28.7498179048046,0.3784,0.8648,0.3301
-0.0469987927928223,-2.14288587556248,25.4274549878297,0.669,0.2499,0.7
-0.276014884099272,-2.12555511477939,28.8088148438297,0.669,0.2499,0.7
-0.340809672324675,-2.12675643859279,25.4864519268548,0.1016,0.9933,0.0545
-0.566413215948399,-2.07808090570241,28.8678117828548,0.1016,0.9933,0.0545
-0.262766054972502,-2.06836476494297,25.54544886588,0.8165,0.4166,0.3997
-0.482569803625097,-2.02837501097125,28.92680872188,0.8165,0.4166,0.3997
0.0100228268308268,-2.07148643743209,25.6044458049051,0.5609,0.7612,0.3255
-0.211680972407669,-2.0606668055373,28.9858056609051,0.5609,0.7612,0.3255
0.20144435656931,-2.26970836363153,25.6634427439303,0.2035,0.9538,0.2209
-0.0425678412233328,-2.27823261841853,29.0448025999303,0.2035,0.9538,0.2209
-0.0346921723206332,-2.43290920985204,25.7224396829554,0.8495,0.239,0.4704
-0.294811020193334,-2.41523026491798,29.1037995389554,0.8495,0.239,0.4704
-0.226113978079936,-2.23468722190709,25.7814366219805,0.2422,0.9696,0.0359
-0.463924419207214,-2.19766436111186,29.1627964779805,0.2422,0.9696,0.0359
-0.456411388188493,-1.55451784366307,23.862026,0.3909,0.7997,-0.4558
-0.620122522268979,-1.49675820990225,27.243385856,0.3909,0.7997,-0.4558
-0.751998081502775,-1.50363027314209,23.9210229390251,0.6466,0.6041,-0.4658
-0.908567399754266,-1.41453539828347,27.3023827950251,0.6466,0.6041,-0.4658
-0.715283041259529,-1.2126131988761,23.9800198780503,-0.0135,0.9944,0.1045
-0.840924699347841,-1.12911746476119,27.3613797340503,-0.0135,0.9944,0.1045
-0.419696455082905,-1.26350060051392,24.0390168170754,0.647,0.1598,-0.7455
-0.552479910314883,-1.21134009700276,27.4203766730754,0.647,0.1598,-0.7455
-0.407372036561218,-1.55916980945578,24.0980137561006,0.4357,0.7747,-0.4582
-0.571862451521545,-1.50663061412881,27.4793736121006,0.4357,0.7747,-0.4582
-0.427069511348848,-1.67366613459973,24.1570106951257,0.59,0.7241,-0.3571
-0.603697799003381,-1.61836203153319,27.5383705511257,0.59,0.7241,-0.3571
-0.623106267003011,-1.45402173219077,24.2160076341509,0.7987,-0.0724,-0.5973
-0.77510748474294,-1.37900290237438,27.5973674901509,0.7987,-0.0724,-0.5973
-0.603408792215381,-1.33952540704682,24.275004573176,0.182,0.9385,-0.2933
-0.743272137261104,-1.26727148497,27.656364429176,0.182,0.9385,-0.2933
-0.467294233909529,-1.59969962826453,24.3340015122011,0.5017,0.261,-0.8247
-0.635777281495112,-1.5405161635145,27.7153613682011,0.5017,0.261,-0.8247
-0.687614512170034,-1.80904837867956,24.3929984512263,0.5229,0.4248,-0.739
-0.877232771930777,-1.72508910424958,27.7743583072263,0.5229,0.4248,-0.739
-0.89592608775865,-1.58900663332457,24.4519953902514,0.33,0.874,-0.3566
-1.06080429473438,-1.48402152401813,27.8333552462514,0.33,0.874,-0.3566
-0.675605747752642,-1.37965760688872,24.5109923292766,0.5539,-0.0324,-0.832
-0.81934871337383,-1.29944831545351,27.8923521852766,0.5539,-0.0324,-0.832
-0.593291990399376,-1.65300171330184,24.5699892683017,0.3555,0.9347,-0.0041
-0.766754957049058,-1.5800306597948,27.9513491243017,0.3555,0.9347,-0.0041
-0.741906251456466,-1.54542902270755,24.6289862073269,0.6532,0.7011,0.2861
-0.903005915161901,-1.45717400037182,28.0103460633269,0.6532,0.7011,0.2861
-0.821350304138232,-1.29838159697505,24.687983146352,0.8358,0.1259,0.5344
-0.955560150742991,-1.20304442635485,28.069343002352,0.8358,0.1259,0.5344
-0.672736150218801,-1.40595411868618,24.7469800853771,0.3235,0.9242,0.2029
-0.819309281082477,-1.32590090640061,28.1283399413771,0.3235,0.9242,0.2029
-0.56577827546143,-1.62303356867937,24.8059770244023,0.6605,-0.2532,0.7069
-0.736192642669087,-1.55317848778693,28.1873368804023,0.6605,-0.2532,0.7069
-0.488722948598879,-1.81353303874484,24.8649739634274,0.2601,0.2712,0.9267
-0.67996286450482,-1.75082914814687,28.2463338194274,0.2601,0.2712,0.9267
-0.704323475933699,-1.69263345244866,24.9239709024526,0.4367,0.521,0.7334
-0.881389571927451,-1.60755466022066,28.3053307584526,0.4367,0.521,0.7334
-0.781378971679411,-1.50213408952085,24.9829678414777,0.8849,-0.3258,0.3329
-0.937619529468934,-1.40990408831305,28.3643276974777,0.8849,-0.3258,0.3329
-0.645226821481309,-1.722190471507,25.0419647805028,0.5671,0.8225,-0.0444
-0.82579474283462,-1.64326525978464,28.4233246365028,0.5671,0.8225,-0.0444
-0.902346817720643,-1.78338540829497,25.100961719528,0.9498,0.3017,-0.0832
-1.087986431567,-1.67659739314366,28.482321575528,0.9498,0.3017,-0.0832
-1.01750078244067,-1.51625164823837,25.1599586585531,0.9697,0.2415,0.0369
-1.17389636376088,-1.39867588461443,28.5413185145531,0.9697,0.2415,0.0369
-0.760380510180519,-1.4550567731959,25.2189555975783,0.5339,0.8417,0.0806
-0.911704407198954,-1.36534384218029,28.6003154535783,0.5339,0.8417,0.0806
-0.68029969339679,-1.74941322921521,25.2779525366034,0.5696,0.7599,-0.3131
-0.863579065619163,-1.66657898607096,28.6593123926034,0.5696,0.7599,-0.3131
-0.634058505770312,-1.70277452042291,25.3369494756286,-0.33,0.944,0.0037
-0.81261306195089,-1.62515576720755,28.7183093316286,-0.33,0.944,0.0037
-0.749586416704046,-1.42278633329587,25.3959464146537,-0.0062,0.9974,0.0711
-0.897519387205227,-1.33441361500529,28.7773062706537,-0.0062,0.9974,0.0711
-0.795827497192865,-1.46942521097133,25.4549433536788,0.8204,0.5644,-0.0915
-0.948485302421172,-1.37583701324591,28.8363032096788,0.8204,0.5644,-0.0915
-0.717065912105241,-1.74726314266757,25.513940292704,-0.158,0.9872,-0.0226
-0.899904159183846,-1.66050730691301,28.895300148704,-0.158,0.9872,-0.0226
-0.914954421610896,-1.92522636508499,25.5729372317291,0.8765,0.4515,-0.1667
-1.11569844869766,-1.81627506782902,28.9542970877291,0.8765,0.4515,-0.1667
-1.05709443549997,-1.67876312125237,25.6319341707543,0.7244,0.685,-0.0781
-1.23065122502375,-1.55601793858218,29.0132940267543,0.7244,0.685,-0.0781
-0.859206094877473,-1.50080000597262,25.6909311097794,0.2696,0.9626,0.028
-1.01485711488715,-1.4002502661185,29.0722909657794,0.2696,0.9626,0.028
-0.886771811216529,-1.7492927865648,25.7499280488046,0.8969,0.125,-0.4242
-1.06885297397371,-1.64436699624002,29.1312879048046,0.8969,0.125,-0.4242
-1.02412351014721,-1.56712127598662,25.8089249878297,0.2545,0.9284,-0.2707
-1.18592405316396,-1.44854485529904,29.1902848438297,0.2545,0.9284,-0.2707
-0.923731583869555,-1.3237613362199,25.8679219268548,0.6453,0.6364,-0.4226
-1.06006927441731,-1.21732380562659,29.2492817828548,0.6453,0.6364,-0.4226
-0.786379992076535,-1.50593267791492,25.92691886588,0.8504,0.3937,-0.349
-0.942998283679385,-1.41314576719035,29.30827872188,0.8504,0.3937,-0.349
-0.86833191426624,-1.76438578103053,25.9859158049051,-0.2121,0.9721,0.0998
-1.05213386750789,-1.66134638846897,29.3672756609051,-0.2121,0.9721,0.0998
-0.900929050482229,-1.88947356780893,26.0449127439303,0.8596,0.3923,-0.3274
-1.09792809373132,-1.78222821727379,29.4262725999303,0.8596,0.3923,-0.3274
-0.936563652773287,-1.61306950340943,26.1039096829554,0.4289,0.8895,-0.1576
-1.10378326091441,-1.50359808840353,29.4852695389554,0.4289,0.8895,-0.1576
-0.9039665783028,-1.48798199265186,26.1629066219805,0.4814,0.8762,0.0237
-1.05798912561587,-1.38271652742826,29.5442664779805,0.4814,0.8762,0.0237
-0.93560059256093,-1.77840972913816,26.2219035610057,0.9999,-0.0113,-0.0046
-1.12051691101764,-1.66809216940106,29.6032634170057,0.9999,-0.0113,-0.0046
-1.21453219305632,-1.78723902016962,26.2809005000308,0.3793,0.9205,-0.0943
-1.398791933602,-1.64702546722176,29.6622603560308,0.3793,0.9205,-0.0943
-1.22640209965153,-1.48351586828604,26.339897439056,0.9701,0.1884,-0.1532
-1.37809572869533,-1.34377587567193,29.721257295056,0.9701,0.1884,-0.1532
-0.94747022313532,-1.47468663900008,26.3988943780811,0.9599,0.2498,-0.1269
-1.09982043828142,-1.36484266877611,29.7802542340811,0.9599,0.2498,-0.1269
-0.262780295382793,-1.59901901262963,26.4578913171063,0.6088,0.7859,-0.1082
-0.432364598692246,-1.56172217125525,29.8392511731063,0.6088,0.7859,-0.1082
-0.363334429214068,-1.7027194309613,26.5168882561314,0.8325,-0.3235,-0.4498
-0.543437273023607,-1.65406810570609,29.8982481121314,0.8325,-0.3235,-0.4498
-0.635175891751266,-1.75886770374611,26.5758851951565,0.6779,0.5883,-0.441
-0.819725928298037,-1.68080737005138,29.9572450511565,0.6779,0.5883,-0.441
-0.534621926803152,-1.6551673925521,26.6348821341817,0.8665,0.391,-0.3104
-0.708653433343892,-1.58846152405287,30.0162419901817,0.8665,0.391,-0.3104
-0.308516438899695,-1.55962647268308,26.6938790732068,0.0571,0.7642,-0.6424
-0.473623229839192,-1.5176620715831,30.0752389292068,0.0571,0.7642,-0.6424
-0.0436777662567192,-1.62562597575807,26.752876012232,0.0107,0.9609,0.2768
-0.217366810163615,-1.61162006383758,30.134235868232,0.0107,0.9609,0.2768
-0.172080797758604,-1.86537444965663,26.8118729512571,-0.0895,0.3561,-0.9301
-0.370685465028788,-1.83625322992375,30.1932328072571,-0.0895,0.3561,-0.9301
-0.43691947040158,-1.79937494658163,26.8708698902823,-0.1497,0.7242,-0.6732
-0.626941884704365,-1.74229523766926,30.2522297462823,-0.1497,0.7242,-0.6732
-0.202932565198971,-1.72895982004688,26.9298668293074,-0.1325,0.875,-0.4656
-0.386763935871619,-1.69732063655158,30.3112266853074,-0.1325,0.875,-0.4656
-0.2339666561821,-2.01668110331464,26.9888637683325,-0.3732,0.0946,-0.9229
-0.448405655208105,-1.98006955358866,30.3702236243325,-0.3732,0.0946,-0.9229
-0.519945592886974,-2.01919238790811,27.0478607073577,0.5801,0.8108,0.0785
-0.733011538228302,-1.9519670601147,30.4292205633577,0.5801,0.8108,0.0785
-0.488911501903846,-1.73147110464034,27.1068576463828,-0.3251,0.9421,0.0825
-0.671369818891816,-1.66921814307762,30.4882175023828,-0.3251,0.9421,0.0825
-0.196598490663799,-1.68688944507751,27.165854585408,-0.7332,0.6765,-0.0691
-0.37596475073022,-1.65616951809094,30.547214441408,-0.7332,0.6765,-0.0691
-0.185546837202098,-1.6261574679735,27.2248515244331,0.0391,0.9969,-0.0684
-0.358478303199042,-1.59696870525919,30.6062113804331,0.0391,0.9969,-0.0684
-0.426534857135087,-1.80577331597589,27.2838484634583,-0.8629,0.4397,0.2491
-0.617301504695014,-1.74976801472169,30.6652083194583,-0.8629,0.4397,0.2491
-0.437586234575968,-1.8665053548254,27.3428454024834,-0.259,0.9554,0.1416
-0.634787684396648,-1.80896891847832,30.7242052584834,-0.259,0.9554,0.1416
-0.229705994773604,-1.67276761367435,27.4018423415085,-0.3229,0.9463,0.0172
-0.407371173190049,-1.63858629941986,30.7832021975085,-0.3229,0.9463,0.0172
0.0296597632680128,-1.74589959371084,27.4608392805337,-0.5011,-0.02,-0.8652
-0.15731941445073,-1.73905022777195,30.8421991365337,-0.5011,-0.02,-0.8652
-0.0884760789598978,-2.01494901950882,27.5198362195588,-0.2386,0.9437,-0.2291
-0.303564984680395,-1.9939147092701,30.9011960755588,-0.2386,0.9437,-0.2291
-0.347841729863856,-1.94181720835549,27.578833158584,-0.4563,-0.0655,-0.8874
-0.553616654967386,-1.89345096029523,30.960193014584,-0.4563,-0.0655,-0.8874
-0.188472219021522,-1.72690628416253,27.6378300976091,0.237,0.0444,-0.9705
-0.372166878574005,-1.69682612724917,31.0191899536091,0.237,0.0444,-0.9705
-0.255206758716689,-1.90247797603452,27.6968270366342,-0.443,0.6316,-0.6363
-0.457304240967645,-1.86424938519075,31.0781868926342,-0.443,0.6316,-0.6363
-0.406111211079786,-2.09330143929979,27.7558239756594,-0.9121,-0.3236,-0.2515
-0.62776022949284,-2.03783078929689,31.1371838316594,-0.9121,-0.3236,-0.2515
-0.339376840267781,-1.91772985456546,27.8148209146845,-0.6894,0.7244,-0.001
-0.542623046476416,-1.87040761980763,31.1961807706845,-0.6894,0.7244,-0.001
-0.169128381535986,-1.7352634616007,27.8738178537097,-0.915,0.3425,-0.2133
-0.35382829759283,-1.70720509208179,31.2551777097097,-0.915,0.3425,-0.2133
-0.0439954961406952,-1.61417996094414,27.9328147927348,-0.0289,0.9473,-0.319
-0.216458007838215,-1.60020576203093,31.3141746487348,-0.0289,0.9473,-0.319
-0.189632398363385,-1.8180363814133,27.99181173176,0.3975,0.6645,0.6328
-0.383071195230567,-1.78730892406322,31.37317158776,0.3975,0.6645,0.6328
-0.314765007737856,-1.93911994381537,28.0508086707851,-0.4168,0.7597,-0.4992
-0.520441217155637,-1.89430834503897,31.4321685267851,-0.4168,0.7597,-0.4992
-0.0764011611053107,-1.83344318896599,28.1098056098102,-0.1253,0.9802,-0.1532
-0.272138507434478,-1.81474287362021,31.4911654658102,-0.1253,0.9802,-0.1532
-0.0355952692871108,-2.10683191513793,28.1688025488354,0.0362,0.987,-0.1566
-0.260819101111103,-2.09092829583776,31.5501624048354,0.0362,0.987,-0.1566
-0.327278416198313,-2.17460853258922,28.2277994878605,-0.3941,0.3691,-0.8417
-0.558079750156149,-2.12710611493286,31.6091593438605,-0.3941,0.3691,-0.8417
-0.368084308016513,-1.90121980641727,28.2867964268857,-0.1462,0.9852,-0.0893
-0.569399156479524,-1.85092069271531,31.6681562828857,-0.1462,0.9852,-0.0893
-0.0613496150321993,-1.89084105226183,28.3457933659108,-0.4705,0.5457,-0.6934
-0.263314863891543,-1.87342172044551,31.7271532219108,-0.4705,0.5457,-0.6934
-0.124655919023129,-1.89726448237416,28.404790304936,-0.3406,0.5877,-0.7339
-0.326945035240263,-1.8730345854142,31.786150160936,-0.3406,0.5877,-0.7339
-0.41906627923528,-1.93843588517698,28.4637872439611,0.0432,0.9927,-0.113
-0.624070518958655,-1.8824681178444,31.8451470999611,0.0432,0.9927,-0.113
-0.35575997524435,-1.93201245506465,28.5227841829862,-0.9682,0.1797,0.1743
-0.560440347609934,-1.88285525287571,31.9041440389862,-0.9682,0.1797,0.1743
-0.0799060734162852,-1.88603048090703,28.5817811220114,-0.4574,0.8784,0.1384
-0.281250068060331,-1.86665324972135,31.9631409780114,-0.4574,0.8784,0.1384
0.101164899024505,-2.08903023379098,28.6407780610365,-0.7334,0.6638,-0.1466
-0.122939294359522,-2.08786196487934,32.0221379170365,-0.7334,0.6638,-0.1466
-0.142888666564518,-2.23380232012631,28.6997750000617,-0.9392,-0.0931,-0.3305
-0.381082207134882,-2.20568953568708,32.0811348560617,-0.9392,-0.0931,-0.3305
-0.323959470122147,-2.0308024601047,28.7587719390868,-0.4589,0.8859,0.0679
-0.539392801458475,-1.98448073207676,32.1401317950868,-0.4589,0.8859,0.0679
-0.0678757981096451,-2.05867258611004,28.817768878112,-0.7986,0.0681,0.598
-0.287761329392671,-2.03959146842601,32.199128734112,-0.7986,0.0681,0.598
-0.222675317332089,-2.26564750180539,28.8767658171371,-0.5668,0.4893,0.6628
-0.463818207507307,-2.22881483523658,32.2581256731371,-0.5668,0.4893,0.6628
-0.482404330827932,-2.16648781343115,28.9357627561622,-0.3904,0.8345,0.3889
-0.711446206561804,-2.10243375146901,32.3171226121622,-0.3904,0.8345,0.3889
-0.327604980488649,-1.95951300487345,28.9947596951874,-0.6865,-0.0867,0.722
-0.535389507824385,-1.91321047311077,32.3761195511874,-0.6865,-0.0867,0.722
-0.0517810826356907,-2.02430900544078,29.0537566342125,-0.1517,0.9873,-0.0479
-0.268082154151068,-2.00714727627379,32.4351164902125,-0.1517,0.9873,-0.0479
0.0453766616259044,-2.03913242981568,29.1127535732377,-0.1665,0.7196,-0.6741
-0.173068262873242,-2.0322813496493,32.4941134292377,-0.1665,0.7196,-0.6741
-0.233743151932715,-2.11901063197773,29.1717505122628,0.0031,0.357,-0.9341
-0.459132555854662,-2.08183554001378,32.5531103682628,0.0031,0.357,-0.9341
-0.33090089619431,-2.10418720760283,29.2307474512879,0.0515,0.9643,-0.2597
-0.554146447132489,-2.05670146663828,32.6121073072879,0.0515,0.9643,-0.2597
-0.362409417014933,-1.87862078287376,29.2897443903131,0.0613,-0.1262,-0.9901
-0.561338778995331,-1.82905861212328,32.6711042463131,0.0613,-0.1262,-0.9901
-0.440221389619947,-2.09694801162986,29.3487413293382,0.1504,0.5638,-0.8121
-0.662064765471898,-2.03780668407922,32.7301011853382,0.1504,0.5638,-0.8121
-0.722520587686028,-1.98487144476484,29.4077382683634,0.2152,0.6341,-0.7427
-0.93075128879387,-1.89616789612144,32.7890981243634,0.2152,0.6341,-0.7427
-0.644708615081015,-1.76654421600875,29.4667352073885,0.1787,-0.1776,-0.9677
-0.830025302317304,-1.68741982416549,32.8480950633885,0.1787,-0.1776,-0.9677
-0.468198814140221,-2.02019669932125,24.581422,-0.015,0.8409,-0.5409
-0.681669289144915,-1.95850244159855,27.962781856,-0.015,0.8409,-0.5409
-0.714696715884323,-2.12611328636651,24.6404189390251,0.0089,0.1227,-0.9924
-0.938085019435224,-2.03743603543062,28.0217787950251,0.0089,0.1227,-0.9924
-0.857942476335703,-1.86309319409768,24.6994158780503,0.1388,0.258,-0.9561
-1.0523656339243,-1.76059879448136,28.0807757340503,0.1388,0.258,-0.9561
-0.611444512846099,-1.7571763310316,24.7584128170754,0.5763,0.8132,0.0815
-0.795949812709103,-1.68166493281974,28.1397726730754,0.5763,0.8132,0.0815
-0.430543775736325,-1.92158134574606,24.8174097561006,-0.683,0.6969,-0.2189
-0.633678712024546,-1.86448226086263,28.1987696121006,-0.683,0.6969,-0.2189
-0.351307028367304,-2.20796087635622,24.8764066951257,0.1457,0.9678,0.2053
-0.585539073917617,-2.15769595926203,28.2577665511257,0.1457,0.9678,0.2053
-0.643066137890854,-2.27760398217916,24.9354036341509,-0.2759,0.9437,-0.1827
-0.883074961229033,-2.19572142363064,28.3167634901509,-0.2759,0.9437,-0.1827
-0.722303054143036,-1.99122455870666,24.994400573176,-0.6394,0.4846,-0.5969
-0.931214778713177,-1.90250781368357,28.375760429176,-0.6394,0.4846,-0.5969
-0.525982368713301,-2.15172926060165,25.0533975122011,0.037,0.9989,0.0279
-0.753194924859971,-2.08309713366702,28.4347573682011,0.037,0.9989,0.0279
-0.769453406213188,-2.32852910665047,25.1123944512263,-0.7993,0.4477,-0.4008
-1.01418558091216,-2.23283092784057,28.4937543072263,-0.7993,0.4477,-0.4008
-0.945234292770941,-2.08137239125425,25.1713913902514,-0.4693,0.8447,-0.2574
-1.1625119026998,-1.96828478005265,28.5527512462514,-0.4693,0.8447,-0.2574
-0.701763255271053,-1.90457254520542,25.2303883292766,-0.183,0.9598,-0.2126
-0.901521246647608,-1.81855098587909,28.6117481852766,-0.183,0.9598,-0.2126
-0.508241671861443,-2.1582093813575,25.2893852683017,-0.8185,0.3015,-0.489
-0.736249438609541,-2.09143828379973,28.6707451243017,-0.8185,0.3015,-0.489
-0.544092676435846,-2.2351501053492,25.3483822073268,-0.1503,0.9886,0.0085
-0.780127182376444,-2.164101294605,28.7297420633269,-0.1503,0.9886,0.0085
-0.819651739294943,-2.10676307694346,25.407379146352,-0.9311,0.2181,-0.2923
-1.0403670670672,-2.00696686615985,28.788739002352,-0.9311,0.2181,-0.2923
-0.783800396954217,-2.02982213867644,25.4663760853771,-0.8736,0.067,-0.482
-0.996488964545861,-1.93430367844993,28.8477359413771,-0.8736,0.067,-0.482
-0.521312577034798,-2.14681230771603,25.5253730244023,-0.413,0.849,-0.3297
-0.748025834343995,-2.07870806961672,28.9067328804023,-0.413,0.849,-0.3297
-0.510455118227423,-2.44700705149441,25.5843699634274,-0.6953,-0.4039,-0.5945
-0.769351139826514,-2.37834117851825,28.9657298194274,-0.6953,-0.4039,-0.5945
-0.808254057571564,-2.4482765746745,25.6433669024526,-0.1096,0.445,-0.8888
-1.06557630200729,-2.34773932800924,29.0247267584526,-0.1096,0.445,-0.8888
-0.819111454633436,-2.1480815548753,25.7023638414777,0.3697,0.3876,-0.8444
-1.04425090559988,-2.04810595127816,29.0837236974777,0.3697,0.3876,-0.8444
-0.612310334957397,-2.30356924275707,25.7613607805028,0.0916,-0.3626,-0.9274
-0.855273970194463,-2.22482845144964,29.1427206365028,0.0916,-0.3626,-0.9274
-0.849002590318307,-2.35741981010418,25.820357719528,-0.3953,0.8012,-0.4493
-1.09636935268661,-2.25304411894848,29.201717575528,-0.3953,0.8012,-0.4493
