-0.317918978920142,-0.256928334635059,28.5507615612589,-0.0318,0.9994,0.0131
0.354432763398874,0.424243465348021,28.5714363645482,0.1906,0.9638,-0.1867
-0.415786749589497,-0.36431645656882,28.5714363645482,0.1906,0.9638,-0.1867
0.480908739075328,0.3399595474331,28.5921111678375,-0.8713,0.4693,0.1434
-0.52770414116705,-0.261484318086356,28.5921111678375,-0.8713,0.4693,0.1434
0.400828886051539,0.218726192254179,28.6127859711269,0.0343,0.9938,0.1062
-0.429836370497694,-0.154096196152594,28.6127859711269,0.0343,0.9938,0.1062
0.291458652913576,0.364193626427459,28.6334607744162,-0.6099,0.7646,0.2085
-0.344282354926928,-0.314729731634221,28.6334607744162,-0.6099,0.7646,0.2085
0.33705086157923,0.393571537569803,28.6541355777055,-0.8266,0.514,0.2294
-0.393869883114745,-0.336702173517691,28.6541355777055,-0.8266,0.514,0.2294
0.47530022206474,0.339873010493285,28.6748103809949,-0.1834,0.9823,0.0369
-0.522149734381537,-0.262266313585735,28.6748103809949,-0.1834,0.9823,0.0369
0.429708013399086,0.310495099350941,28.6954851842842,-0.8264,0.1993,0.5266
-0.47256220619372,-0.240293871702265,28.6954851842842,-0.8264,0.1993,0.5266
0.30434551467463,0.367858904639475,28.7161599875736,-0.4585,0.8445,0.2767
-0.357581053586356,-0.316357639612499,28.7161599875736,-0.4585,0.8445,0.2767
0.227194353094252,0.48725669640502,28.7368347908629,-0.0919,0.951,0.2952
-0.299826079436209,-0.446251817205669,28.7368347908629,-0.0919,0.951,0.2952
0.356478701945515,0.546719763113399,28.7575095941522,-0.0816,0.2897,0.9536
-0.436751949127174,-0.485002370358274,28.7575095941522,-0.0816,0.2897,0.9536
0.433629828811823,0.427321877566548,28.7781843974416,0.0749,0.9965,0.0379
-0.494506874475497,-0.355108105481761,28.7781843974416,0.0749,0.9965,0.0379
0.330450169925698,0.504866712797999,28.7988592007309,0.0549,0.3048,0.9508
-0.404563082132077,-0.447678930787651,28.7988592007309,0.0549,0.3048,0.9508
0.446954841350053,0.580153771336323,28.8195340040203,-0.2135,0.3436,0.9145
-0.531310628371346,-0.504039725400346,28.8195340040203,-0.2135,0.3436,0.9145
0.543548521205064,0.477227823746235,28.8402088073096,-0.1642,0.8195,0.5491
-0.61082190528372,-0.387411913455622,28.8402088073096,-0.1642,0.8195,0.5491
0.427043849780709,0.401940765207911,28.8608836105989,0.1864,-0.1984,0.9622
-0.484074359044451,-0.331051118842928,28.8608836105989,0.1864,-0.1984,0.9622
0.335997891609887,0.539134160555525,28.8815584138883,0.3232,0.8015,0.5032
-0.415344318902398,-0.480675902245685,28.8815584138883,0.3232,0.8015,0.5032
0.315332829322578,0.596828157984388,28.9022332171776,0.4374,0.5596,0.7039
-0.403851702297247,-0.540871931202975,28.9022332171776,0.4374,0.5596,0.7039
0.453997521108717,0.549362559256626,28.922908020467,0.4755,0.1457,0.8676
-0.533505957729214,-0.47252974906696,28.922908020467,0.4755,0.1457,0.8676
0.47466252432879,0.491668690323139,28.9435828237563,0.1856,0.9178,0.3509
-0.544998535852846,-0.412333856194837,28.9435828237563,0.1856,0.9178,0.3509
0.371501455279993,0.601765265391164,28.9642576270456,-0.9399,0.2439,0.2391
-0.460108013127189,-0.537061804788425,28.9642576270456,-0.9399,0.2439,0.2391
0.442993226095726,0.735612192930352,28.984932430335,-0.6198,0.7788,0.0968
-0.551442044166031,-0.658240053992834,28.984932430335,-0.6198,0.7788,0.0968
0.5767044166923,0.663705328531905,29.0056072336243,-0.4458,0.8895,-0.1002
-0.672421985812832,-0.566516919738129,29.0056072336243,-0.4458,0.8895,-0.1002
0.505212611162497,0.529858307211411,29.0262820369137,-0.986,-0.1369,-0.0951
-0.581087905972167,-0.445338583250377,29.0262820369137,-0.986,-0.1369,-0.0951
0.431030513789012,0.675858647033587,29.046956840203,-0.5229,0.8486,-0.0803
-0.530380984070837,-0.601055926119476,29.046956840203,-0.5229,0.8486,-0.0803
0.525133940914031,0.692698858599542,29.0676316434923,-0.8907,0.1489,-0.4296
-0.625956672037775,-0.60313813454001,29.0676316434923,-0.8907,0.1489,-0.4296
0.614647727886271,0.583193688251524,29.0883064467817,-0.9438,0.0852,-0.3194
-0.697455624615428,-0.481105351357136,29.0883064467817,-0.9438,0.0852,-0.3194
0.520544300761251,0.566353476685568,29.108981250071,-0.4504,0.8928,-0.0077
-0.60187993664849,-0.479023142936601,29.108981250071,-0.4504,0.8928,-0.0077
0.397739144379081,0.207463899830011,29.1296560533603,-0.9098,-0.0077,0.4151
-0.425041829735114,-0.143447341137807,29.1296560533603,-0.9098,-0.0077,0.4151
0.529217151945407,0.282586155366098,29.1503308566497,-0.4687,0.8197,0.3292
-0.566557026038827,-0.197329332243942,29.1503308566497,-0.4687,0.8197,0.3292
0.604208099125374,0.150466210134875,29.171005659939,-0.6093,0.7478,0.2637
-0.620209998026856,-0.0552002335916891,29.171005659939,-0.6093,0.7478,0.2637
0.472729963063672,0.0753438955315525,29.1916804632284,-0.9392,0.1287,0.3185
-0.478694665637976,-0.00131820400403533,29.1916804632284,-0.9392,0.1287,0.3185
0.550042586822412,0.183797004180588,28.321200856,0.3544,0.7613,-0.543
-0.571851738871204,-0.0965079002674385,28.321200856,0.3544,0.7613,-0.543
0.650322005527586,0.0929276492376119,28.3418756592893,-0.1186,0.8657,0.4863
-0.656869238733276,0.00877850056762934,28.3418756592893,-0.1186,0.8657,0.4863
0.554175680636511,-0.0239476664890203,28.3625504625787,-0.1509,0.9638,0.2198
-0.543802421624072,0.109375966167185,28.3625504625787,-0.1509,0.9638,0.2198
0.453896074368726,0.0669217578820957,28.383225265868,-0.0599,0.9874,-0.1463
-0.458784747195314,0.00408946772846908,28.383225265868,-0.0599,0.9874,-0.1463
0.58977787667202,0.185005948338815,28.4039000691574,-0.5177,0.2792,0.8087
-0.611295829771657,-0.0915562845264097,28.4039000691574,-0.5177,0.2792,0.8087
0.665088377713031,0.167145096456786,28.4245748724467,-0.0272,0.9675,0.2514
-0.682937405855607,-0.0622618111020996,28.4245748724467,-0.0272,0.9675,0.2514
0.634876282395363,0.0182069357955367,28.445249675736,-0.3933,0.6446,0.6556
-0.630052054123103,0.0802109441066396,28.445249675736,-0.3933,0.6446,0.6556
0.559565875135658,0.0360677529634952,28.4659244790254,-0.5503,0.3439,0.7609
-0.558410565322496,0.0509165194841532,28.4659244790254,-0.5503,0.3439,0.7609
0.612523650267137,0.17148429423735,28.4865992823147,-0.1618,0.9566,0.2422
-0.631676424722924,-0.0746791788648218,28.4865992823147,-0.1618,0.9566,0.2422
0.752501582026294,0.230049977548302,28.5072740856041,-0.3283,0.0286,0.9441
-0.779028384533055,-0.110889130278262,28.5072740856041,-0.3283,0.0286,0.9441
0.811712281548591,0.0909650687771472,28.5279488888934,-0.2671,0.6465,0.7146
-0.816013717083693,0.0356803207063093,28.5279488888934,-0.2671,0.6465,0.7146
0.671734537352045,0.0323993160380555,28.5486236921827,-0.3462,0.7633,0.5455
-0.668661931840249,0.0718903697233973,28.5486236921827,-0.3462,0.7633,0.5455
0.742128922132299,0.152504429556921,28.5692984954721,-0.25,-0.2361,0.939
-0.756786283721312,-0.0358811771130124,28.5692984954721,-0.25,-0.2361,0.939
0.825429077557215,0.0477471184648315,28.5899732987614,0.0221,0.9098,0.4145
-0.822880751934133,0.0804997981051238,28.5899732987614,0.0221,0.9098,0.4145
0.737362797745885,-0.0619190979422395,28.6106481020507,-0.2019,0.072,0.9767
-0.718911800552681,0.17522469351014,28.6106481020507,-0.2019,0.072,0.9767
0.654062736102275,0.0428381784357799,28.6313229053401,-0.6843,0.0297,0.7286
-0.652817419623203,0.0588437670938275,28.6313229053401,-0.6843,0.0297,0.7286
0.748124766793945,0.158503384493692,28.6519977086294,-0.7119,0.6797,-0.1766
-0.76363785345428,-0.0408805376455482,28.6519977086294,-0.7119,0.6797,-0.1766
0.818788038801999,0.216376861181773,28.6726725119188,-0.751,-0.4501,-0.4831
-0.842402248705391,-0.087127779245203,28.6726725119188,-0.751,-0.4501,-0.4831
0.834524309759911,0.0765381173290434,28.6933473152081,-0.7897,0.5724,-0.2208
-0.836319743473582,0.0534620768471731,28.6933473152081,-0.7897,0.5724,-0.2208
0.763860850189245,0.0186647100691033,28.7140221184974,-0.9273,0.3521,0.1266
-0.757555173655785,0.0997092208431802,28.7140221184974,-0.9273,0.3521,0.1266
0.839746888596377,0.142264788259092,28.7346969217868,-0.9716,-0.128,0.1992
-0.85164567002096,-0.0106658154986258,28.7346969217868,-0.9716,-0.128,0.1992
0.975986025066099,0.0788868593670515,28.7553717250761,-0.4551,0.8707,0.1864
-0.97644233862947,0.0730220311750553,28.7553717250761,-0.4551,0.8707,0.1864
0.91272268408407,-0.059200916456595,28.7760465283655,-0.8909,-0.0055,0.4542
-0.892581764668489,0.199662815597235,28.7760465283655,-0.8909,-0.0055,0.4542
0.776483641395654,0.00417697772137555,28.7967213316548,-0.8644,0.3967,0.3089
-0.767785183343322,0.115975017725377,28.7967213316548,-0.8644,0.3967,0.3089
0.888675172535452,0.116316761024305,28.8173961349441,-0.0003,0.9881,-0.1539
-0.89597164889523,0.0225378692884232,28.8173961349441,-0.0003,0.9881,-0.1539
0.89183423688255,0.058676766255907,28.8380709382335,-0.8472,0.3922,0.3584
-0.890177294826602,0.0799728250677861,28.8380709382335,-0.8472,0.3922,0.3584
0.812278372253735,-0.0617805256189386,28.8587457415228,0.1139,0.9899,0.0848
-0.792947243370525,0.186675270477948,28.8587457415228,0.1139,0.9899,0.0848
0.809119401687943,-0.00414056556461122,28.8794205448122,-0.6628,0.6803,0.3129
-0.798741684722497,0.129240363500409,28.8794205448122,-0.6628,0.6803,0.3129
0.887040524336332,0.107028612395266,28.9000953481015,-0.884,0.4363,0.1678
-0.892920038861479,0.0314614031115174,28.9000953481015,-0.884,0.4363,0.1678
1.0108582608307,0.151856228869728,28.9207701513908,-0.2383,0.9712,-0.0071
-1.02218136199209,0.00632462901669637,28.9207701513908,-0.2383,0.9712,-0.0071
1.02671255785263,0.0117832468087307,28.9414449546802,-0.9425,-0.0136,0.334
-1.0161792319199,0.147164159945042,28.9414449546802,-0.9425,-0.0136,0.334
0.902894692862884,-0.0330444287329671,28.9621197579695,-0.6323,0.7222,0.2804
-0.886917772704119,0.172300972521382,28.9621197579695,-0.6323,0.7222,0.2804
0.495443076893486,0.285345933630243,28.9827945612589,-0.7562,0.6278,0.1847
-0.533616267842411,-0.205279865001263,28.9827945612589,-0.7562,0.6278,0.1847
0.633121349138538,0.259533292469034,29.0034693645482,-0.9541,-0.1583,0.2541
-0.665645121408871,-0.158482633052929,29.0034693645482,-0.9541,-0.1583,0.2541
0.634776113992028,0.121736601544398,29.0241441678375,-0.4953,0.8383,0.228
-0.645966425002793,-0.0220882959847887,29.0241441678375,-0.4953,0.8383,0.228
0.497097841746976,0.147549242705607,29.0448189711269,-0.908,0.1264,0.3993
-0.513937571436332,-0.0688855279331226,29.0448189711269,-0.908,0.1264,0.3993
0.483979394902076,0.295090424301891,28.944019856,-0.4153,0.721,0.5548
-0.523797762632006,-0.216680218446804,28.944019856,-0.4153,0.721,0.5548
0.447777228559689,0.309962306577113,28.9646946592893,-0.1508,0.9885,-0.01
-0.490331559778811,-0.236972655384706,28.9646946592893,-0.1508,0.9885,-0.01
0.528884496083867,0.185608276095422,28.9853694625787,-0.5625,0.0901,0.8219
-0.551228429836029,-0.101569978308091,28.9853694625787,-0.5625,0.0901,0.8219
0.565086568644949,0.17073642853427,29.006044265868,-0.1555,0.9132,0.3766
-0.584694545405882,-0.0812775901720118,29.006044265868,-0.1555,0.9132,0.3766
0.498550501432137,0.301628908494702,29.0267190691574,-0.6599,0.5678,0.4921
-0.539204847039341,-0.220886246396693,29.0267190691574,-0.6599,0.5678,0.4921
0.586682085469203,0.407044523231644,29.0473938724467,-0.9073,0.0708,0.4144
-0.642580859748265,-0.311401592784223,29.0473938724467,-0.9073,0.0708,0.4144
0.689862436099302,0.300424874132147,29.068068675736,-0.3185,0.9135,0.2532
-0.728028221599627,-0.190105745028035,29.068068675736,-0.3185,0.9135,0.2532
0.601730792995,0.195009387890581,29.0887434790254,-0.3783,-0.0176,0.9255
-0.624652170409185,-0.0995905347256719,29.0887434790254,-0.3783,-0.0176,0.9255
0.527929719364331,0.306616552504913,29.1094182823147,-0.1229,0.576,0.8082
-0.569001961423226,-0.221269669757563,29.1094182823147,-0.1229,0.576,0.8082
0.59075808049838,0.238895186575765,29.1300930856041,-0.09,0.757,0.6472
-0.620599494318357,-0.144645385322171,29.1300930856041,-0.09,0.757,0.6472
0.670926626564912,0.148640455649856,29.1507678888934,-0.0301,-0.0628,0.9976
-0.685843210428113,-0.0430768383151394,29.1507678888934,-0.0301,-0.0628,0.9976
0.60809835921217,0.216361786864934,29.1714426921827,0.0186,0.8665,0.4988
-0.634245764816326,-0.119701073948708,29.1714426921827,0.0186,0.8665,0.4988
0.520647116957338,0.298215291487563,29.1921174954721,0.8223,0.5367,0.1892
-0.560507545350541,-0.214095941292943,29.1921174954721,0.8223,0.5367,0.1892
0.432557048598426,0.328079503583184,29.2127922987614,0.8526,0.3364,0.3999
-0.478096802729953,-0.257225986601211,29.2127922987614,0.8526,0.3364,0.3999
0.540480550892491,0.274177353491347,29.2334671020507,0.5181,0.7955,0.3141
-0.576384254646582,-0.18727957191342,29.2334671020507,0.5181,0.7955,0.3141
0.628570619251403,0.244313141395726,29.2541419053401,0.8451,-0.442,0.3007
-0.65879499726717,-0.144149526605153,29.2541419053401,0.8451,-0.442,0.3007
0.56751443534245,0.348446460462997,29.2748167086294,0.787,0.5895,0.1819
-0.614580292098205,-0.256473458072634,29.2748167086294,0.787,0.5895,0.1819
0.675981156054027,0.335949819077138,29.2954915119188,0.8295,0.4606,0.3158
-0.719808775288115,-0.227350239270435,29.2954915119188,0.8295,0.4606,0.3158
0.700254017447478,0.191875691688546,29.3161663152081,0.9055,-0.1522,0.3962
-0.721505024456847,-0.0812555825516909,29.3161663152081,0.9055,-0.1522,0.3962
0.591787296735901,0.204372333074404,29.3368411184974,-0.8908,0.4152,-0.1848
-0.616276541266937,-0.11037880135389,29.3368411184974,-0.8908,0.4152,-0.1848
0.61217189239627,0.347947084866679,29.3575159217868,0.2394,0.9668,-0.0898
-0.658623082370319,-0.249072750569527,29.3575159217868,0.2394,0.9668,-0.0898
0.551695478406886,0.339686829619133,29.3781907250761,0.0731,0.9969,0.0279
-0.597596821093494,-0.250266023523472,29.3781907250761,0.0731,0.9969,0.0279
0.512803332977564,0.194973283495231,29.3988655283655,-0.2233,0.9727,0.0629
-0.53678931605514,-0.113309619004148,29.3988655283655,-0.2233,0.9727,0.0629
0.573279781681018,0.203233632524084,29.4195403316548,0.8619,0.5018,0.0734
-0.597815626133789,-0.112116433333546,29.4195403316548,0.8619,0.5018,0.0734
0.625712991407039,0.334069194725142,29.4402151349441,-0.0523,0.9942,-0.0941
-0.669854675216523,-0.2332674185788,29.4402151349441,-0.0523,0.9942,-0.0941
0.742578435097395,0.353522803049978,29.4608899382335,0.5233,0.8283,-0.2
-0.788322676351094,-0.234410883916806,29.4608899382335,0.5233,0.8283,-0.2
0.710197810099815,0.220899711546024,29.4815647415228,0.7244,0.6848,-0.0792
-0.735818406774539,-0.108392270404625,29.4815647415228,0.7244,0.6848,-0.0792
0.593332331695389,0.201446009439883,29.5022395448122,-0.0086,0.9961,0.0877
-0.617350356838144,-0.107248717783275,29.5022395448122,-0.0086,0.9961,0.0877
0.678801555574601,0.295857739842651,29.5229143481015,0.6479,0.1669,-0.7432
-0.716394035990751,-0.187304402703682,29.5229143481015,0.6479,0.1669,-0.7432
0.681410678773351,0.187689985206698,29.5435891513908,0.4774,0.7051,-0.5244
-0.702241034953586,-0.0800348206755416,29.5435891513908,0.4774,0.7051,-0.5244
0.579178713207797,0.107436438864288,29.5642639546802,0.6707,0.6042,-0.4301
-0.588826245012663,-0.0165596924237125,29.5642639546802,0.6707,0.6042,-0.4301
0.576569683790353,0.215604158786171,29.5849387579695,0.7645,-0.3457,-0.5441
-0.60297933333317,-0.123829225650029,29.5849387579695,0.7645,-0.3457,-0.5441
0.679692529765836,0.30644557128684,29.6056135612589,0.346,0.8228,-0.4508
-0.71891194866688,-0.197627005352985,29.6056135612589,0.346,0.8228,-0.4508
0.686126525768267,0.36358979379875,29.6262883645482,0.5702,0.0454,-0.8203
-0.734107233191315,-0.253088359458988,29.6262883645482,0.5702,0.0454,-0.8203
0.62228847066139,0.236826030327831,29.6469631678375,0.6364,0.1694,-0.7525
-0.65143039024206,-0.137724202767734,29.6469631678375,0.6364,0.1694,-0.7525
0.615854380877653,0.17968184252999,29.6676379711269,0.4888,0.7398,-0.4624
-0.636235018434282,-0.082262897463555,29.6676379711269,0.4888,0.7398,-0.4624
0.54415251012391,0.321353934233732,29.6883127744162,0.7796,0.3789,0.4986
-0.587309008196662,-0.233320453909859,29.6883127744162,0.7796,0.3789,0.4986
0.604042971821631,0.389642259416034,29.7089875777055,0.1173,0.9903,-0.0752
-0.657041142518167,-0.291523479617615,29.7089875777055,0.1173,0.9903,-0.0752
0.713547451858624,0.284352765907006,29.7296623809949,0.4329,0.8259,0.3612
-0.74894226688044,-0.17056360225115,29.7296623809949,0.4329,0.8259,0.3612
0.653657024874973,0.21606453450601,29.7503371842842,0.6391,0.2245,0.7356
-0.679210181360759,-0.112360663826738,29.7503371842842,0.6391,0.2245,0.7356
0.618557875742418,0.37648813044866,29.339915856,0.1976,0.9606,0.1954
-0.669346768040797,-0.276282576586075,29.339915856,0.1976,0.9606,0.1954
0.757426944533768,0.403334092811617,29.3605906592893,0.828,0.0402,0.5592
-0.81069699748279,-0.281326047500617,29.3605906592893,0.828,0.0402,0.5592
0.790300471201833,0.255312333281593,29.3812654625787,0.7234,0.5363,0.4348
-0.820279812408943,-0.130000967926704,29.3812654625787,0.7234,0.5363,0.4348
0.651431437124553,0.228466464699942,29.401940265868,0.5763,0.7302,0.3672
-0.678929631768773,-0.124957584295505,29.401940265868,0.5763,0.7302,0.3672
0.595589986929019,0.340123088774198,29.4226150691574,0.9013,-0.1879,0.3904
-0.641030562719804,-0.243907699153883,29.4226150691574,0.9013,-0.1879,0.3904
0.596658425604643,0.492070110716836,29.4432898724467,0.5464,0.8192,0.1744
-0.66558837691685,-0.393860867844323,29.4432898724467,0.5464,0.8192,0.1744
0.748613341171947,0.49091237898051,29.463964675736,0.008,0.9949,-0.1002
-0.815535532933741,-0.369213614238978,29.463964675736,0.008,0.9949,-0.1002
0.747544867782253,0.338965263256566,29.4846394790254,0.2598,0.9625,-0.0779
-0.790977669934871,-0.219260358265196,29.4846394790254,0.2598,0.9625,-0.0779
0.678797733890439,0.453188804121753,29.5053142823147,-0.3745,0.8224,0.4283
-0.740725264507118,-0.342742670580947,29.5053142823147,-0.3745,0.8224,0.4283
0.813982318180455,0.509650833639878,29.5259890856041,0.5751,0.5897,-0.567
-0.883016181718509,-0.377615690038847,29.5259890856041,0.5751,0.5897,-0.567
0.873011958895801,0.369592546315218,29.5466638888934,0.0696,0.9843,-0.162
-0.919672078173717,-0.230112579609388,29.5466638888934,0.0696,0.9843,-0.162
0.737827409319855,0.313130610578398,29.5673386921827,0.327,0.929,-0.1733
-0.77738120976415,-0.195239647434831,29.5673386921827,0.327,0.929,-0.1733
0.66908382165353,0.460457517475822,29.5880134954721,0.7115,0.358,-0.6047
-0.732252533540573,-0.351426397588318,29.5880134954721,0.7115,0.358,-0.6047
0.698325808566414,0.525802540743067,29.6086882987614,0.0016,0.9967,-0.0816
-0.771249777689437,-0.411462060433029,29.6086882987614,0.0016,0.9967,-0.0816
0.831883543749942,0.453491193407765,29.6293631020507,0.2922,0.4107,-0.8637
-0.892015547729279,-0.31936304649974,29.6293631020507,0.2922,0.4107,-0.8637
0.802641403988516,0.388146333349967,29.6500379053401,0.3198,0.6335,-0.7046
-0.853018177815552,-0.25932756854202,29.6500379053401,0.3198,0.6335,-0.7046
0.682655643481366,0.471396977271145,29.6707127086294,0.2206,0.9495,-0.2233
-0.747353074971483,-0.360135001198161,29.6707127086294,0.2206,0.9495,-0.2233
0.702192998874954,0.621882607002607,29.6913875119188,0.9555,-0.2061,-0.211
-0.789931504069621,-0.505787705900081,29.6913875119188,0.9555,-0.2061,-0.211
0.852341645588528,0.603233574194375,29.7120623152081,0.4666,0.8546,-0.2281
-0.935388681437531,-0.464139031410243,29.7120623152081,0.4666,0.8546,-0.2281
0.832804383976245,0.452747909748843,29.7327371184974,0.9242,0.364,-0.1153
-0.892810339622736,-0.318486277906499,29.7327371184974,0.9242,0.364,-0.1153
0.754963011583989,0.564680461328355,29.7534119217868,0.9158,-0.2017,0.3472
-0.833218783372636,-0.441111812697182,29.7534119217868,0.9158,-0.2017,0.3472
0.883090256143993,0.582404695728208,29.7740867250761,0.2559,0.7669,0.5886
-0.962545567223933,-0.438804809818998,29.7740867250761,0.2559,0.7669,0.5886
0.936526051411815,0.451932488854348,29.7947615283655,0.2482,-0.406,0.8795
-0.995157653034807,-0.30163763866823,29.7947615283655,0.2482,-0.406,0.8795
0.808398772137741,0.434208160673188,29.8154363316548,0.9542,0.2158,-0.2072
-0.865830820381686,-0.303944554263071,29.8154363316548,0.9542,0.2158,-0.2072
0.745704096400442,0.559638034540202,29.8361111349441,0.6008,0.4954,-0.6274
-0.823291362174913,-0.437562180793309,29.8361111349441,0.6008,0.4954,-0.6274
0.728314573628784,0.657298661306694,29.8567859382335,0.4817,-0.2981,-0.8241
-0.821216659014818,-0.536737223669264,29.8567859382335,0.4817,-0.2981,-0.8241
0.858615815640824,0.608417635305596,29.8774607415228,0.2048,0.7742,-0.5989
-0.942389184297847,-0.468290255224096,29.8774607415228,0.2048,0.7742,-0.5989
0.876005338412481,0.510757008539104,29.8981355448122,0.4431,0.0472,-0.8952
-0.944463887457942,-0.369115212348141,29.8981355448122,0.4431,0.0472,-0.8952
0.793308086690095,0.623275469378846,29.9188103481015,0.2352,0.9477,0.2159
-0.880165514402182,-0.493070682959818,29.9188103481015,0.2352,0.9477,0.2159
0.917773042567095,0.706576450523047,29.9394851513908,-0.5287,0.8377,-0.1368
-1.01601709212179,-0.556117709314315,29.9394851513908,-0.5287,0.8377,-0.1368
1.00373411420062,0.581758518458994,29.9601599546802,0.7412,0.5888,0.3223
-1.08163760013736,-0.419505956785818,29.9601599546802,0.7412,0.5888,0.3223
0.879269193037687,0.498457631096099,29.9808347579695,0.1173,0.9911,-0.0629
-0.945786071219584,-0.356459017714664,29.9808347579695,0.1173,0.9911,-0.0629
0.81970878421477,0.643892524307002,30.0015095612588,0.3784,0.8648,0.3301
-0.909437414568237,-0.509356125673129,30.0015095612588,0.3784,0.8648,0.3301
0.866579238790638,0.630541523969142,30.0221843645482,0.669,0.2499,0.7
-0.953678759725087,-0.488916162344333,30.0221843645482,0.669,0.2499,0.7
0.949180313082387,0.508790505727368,30.0428591678375,0.1016,0.9933,0.0545
-1.01645407742805,-0.35585411890462,30.0428591678375,0.1016,0.9933,0.0545
0.902309764725214,0.522141540779298,30.0635339711269,0.8165,0.4166,0.3997
-0.972212644987857,-0.37629413103524,30.0635339711269,0.8165,0.4166,0.3997
0.820903896159003,0.631589995686806,30.0842087744162,0.5609,0.7612,0.3255
-0.908715264354679,-0.497016798216616,30.0842087744162,0.5609,0.7612,0.3255
0.841751863007327,0.767784326687407,30.1048835777055,0.2035,0.9538,0.2209
-0.950378042015753,-0.628347474282697,30.1048835777055,0.2035,0.9538,0.2209
0.97820840562078,0.723305611566543,30.1255583809949,0.8495,0.239,0.4704
-1.07831271490093,-0.563297773325788,30.1255583809949,0.8495,0.239,0.4704
0.957360497839692,0.587111152070567,30.1462331842842,0.2422,0.9696,0.0359
-1.03664997572137,-0.43196696117454,30.1462331842842,0.2422,0.9696,0.0359
0.756594670275704,0.289436997106725,29.721385856,0.3909,0.7997,-0.4558
-0.792257834856241,-0.168928367933458,29.721385856,0.3909,0.7997,-0.4558
0.825908605446927,0.156448885173441,29.7420606592893,0.6466,0.6041,-0.4658
-0.840167831659545,-0.0268196358625284,29.7420606592893,0.6466,0.6041,-0.4658
0.699031961151826,0.0828822483329921,29.7627354625787,-0.0135,0.9944,0.1045
-0.703439237466332,0.0262371681643613,29.7627354625787,-0.0135,0.9944,0.1045
0.629717991266534,0.21587026648497,29.783410265868,0.647,0.1598,-0.7455
-0.655529191861204,-0.115871476623226,29.783410265868,0.647,0.1598,-0.7455
0.743587430971324,0.310351977960615,29.8040850691574,0.4357,0.7747,-0.4582
-0.782642131063772,-0.191603529212168,29.8040850691574,0.4357,0.7747,-0.4582
0.79509651329041,0.337206478230879,29.8247598724467,0.59,0.7241,-0.3571
-0.837685021065401,-0.210167742268168,29.8247598724467,0.59,0.7241,-0.3571
0.767125972582756,0.192686005211409,29.845434675736,0.7987,-0.0724,-0.5973
-0.787697548975177,-0.0717128004882546,29.845434675736,0.7987,-0.0724,-0.5973
0.71561689026367,0.165831504941145,29.8661094790254,0.182,0.9385,-0.2933
-0.732654658973548,-0.053148587432255,29.8661094790254,0.182,0.9385,-0.2933
0.777863076315011,0.298797146797685,29.8867842823147,0.5017,0.261,-0.8247
-0.814718058598509,-0.174886207066672,29.8867842823147,0.5017,0.261,-0.8247
0.927883210773375,0.274590942316717,29.9074590856041,0.5229,0.4248,-0.739
-0.959188721045532,-0.127767115708727,29.9074590856041,0.5229,0.4248,-0.739
0.90347355824134,0.125067735358616,29.9281338888934,0.33,0.874,-0.3566
-0.911945491713443,0.0161811313734991,29.9281338888934,0.33,0.874,-0.3566
0.7534532952876,0.149273880772348,29.9488086921827,0.5539,-0.0324,-0.832
-0.767474693181253,-0.0309379215029264,29.9488086921827,0.5539,-0.0324,-0.832
0.837238008542692,0.264830190054281,29.9694834954721,0.3555,0.9347,-0.0041
-0.868124647606201,-0.132144272412126,29.9694834954721,0.3555,0.9347,-0.0041
0.839476648648965,0.173126814553242,29.9901582987614,0.6532,0.7011,0.2861
-0.856152231223063,-0.0411982343799017,29.9901582987614,0.6532,0.7011,0.2861
0.765282084997334,0.0666791102969545,30.0108331020507,0.8358,0.1259,0.5344
-0.766385877717292,0.0524924737782026,30.0108331020507,0.8358,0.1259,0.5344
0.763043410176992,0.158382392016688,30.0315079053401,0.3235,0.9242,0.2029
-0.778358245298607,-0.0384534769706785,30.0315079053401,0.3235,0.9242,0.2029
0.816982182100755,0.266694337474454,30.0521827086294,0.6605,-0.2532,0.7069
-0.848400923102435,-0.137119032923904,30.0521827086294,0.6605,-0.2532,0.7069
0.869408328769416,0.355059443816019,30.0728575119188,0.2601,0.2712,0.9267
-0.913863924460216,-0.21631176192418,30.0728575119188,0.2601,0.2712,0.9267
0.88664114754637,0.232674378160888,30.0935323152081,0.4367,0.521,0.7334
-0.911959584879071,-0.092734062361639,30.0935323152081,0.4367,0.521,0.7334
0.834215094659015,0.144309237105253,30.1142071184974,0.8849,-0.3258,0.3329
-0.846496670804633,-0.0135412845595391,30.1142071184974,0.8849,-0.3258,0.3329
0.880492889030255,0.265135230013374,30.1348819217868,0.5671,0.8225,-0.0444
-0.910906162567407,-0.125755241734933,30.1348819217868,0.5671,0.8225,-0.0444
0.982733659145024,0.181405288445325,30.1555567250761,0.9498,0.3017,-0.0832
-0.998965690799036,-0.0272189657941773,30.1555567250761,0.9498,0.3017,-0.0832
0.911368810630798,0.0546682428165047,30.1762315283655,0.9697,0.2415,0.0369
-0.908856767559291,0.0869545963415193,30.1762315283655,0.9697,0.2415,0.0369
0.809127981448793,0.13839831287993,30.1969063316548,0.5339,0.8417,0.0806
-0.820797200846142,-0.0115818156844039,30.1969063316548,0.5339,0.8417,0.0806
0.90194694534314,0.25943262638577,30.2175811349441,0.5696,0.7599,-0.3131
-0.931219988077798,-0.116802883747043,30.2175811349441,0.5696,0.7599,-0.3131
0.869386438381553,0.263694965430758,30.2382559382335,-0.33,0.944,0.0037
-0.899710600275476,-0.126050187573177,30.2382559382335,-0.33,0.944,0.0037
0.793021994675491,0.132914643817322,30.2589307415228,-0.0062,0.9974,0.0711
-0.804036859919118,-0.0086553146439297,30.2589307415228,-0.0062,0.9974,0.0711
0.825582536351148,0.12865239855364,30.2796055448122,0.8204,0.5644,-0.0915
-0.835546296523264,0.00059190189886178,30.2796055448122,0.8204,0.5644,-0.0915
0.912230893819119,0.244157325036422,30.3002803481015,-0.158,0.9872,-0.0226
-0.939017485298367,-0.100120753647286,30.3002803481015,-0.158,0.9872,-0.0226
1.04297112277961,0.219364479026952,30.3209551513908,0.8765,0.4515,-0.1667
-1.06434952654141,-0.0554041781998834,30.3209551513908,0.8765,0.4515,-0.1667
0.988004070255546,0.0881562412366474,30.3416299546802,0.7244,0.685,-0.0781
-0.989749484804819,0.065723078435935,30.3416299546802,0.7244,0.685,-0.0781
0.857263935076364,0.112949052532047,30.3623047579695,0.2696,0.9626,0.028
-0.864417530845123,0.0210065517903566,30.3623047579695,0.2696,0.9626,0.028
0.96445440848457,0.177271172300093,30.3829795612589,0.8969,0.125,-0.4242
-0.980266980516385,-0.0259619237203056,30.3829795612589,0.8969,0.125,-0.4242
0.933608876450285,0.0674461283898264,30.4036543645482,0.2545,0.9284,-0.2707
-0.93280559215092,0.0777704421583942,30.4036543645482,0.2545,0.9284,-0.2707
0.80639566990633,0.0336459824277873,30.4243291678375,0.6453,0.6364,-0.4226
-0.801895322984882,0.0914872644261607,30.4243291678375,0.6453,0.6364,-0.4226
0.837241167226545,0.143470932556748,30.4450039711269,0.8504,0.3937,-0.349
-0.849356662548523,-0.012245014169196,30.4450039711269,0.8504,0.3937,-0.349
0.964870915313737,0.189178463865821,30.4656787744162,-0.2121,0.9721,0.0998
-0.982520221768348,-0.0376614952607705,30.4656787744162,-0.2121,0.9721,0.0998
1.02450102871377,0.214111002816941,30.4863535777056,0.8596,0.3923,-0.3274
-1.04528913379187,-0.0530707653938054,30.4863535777056,0.8596,0.3923,-0.3274
0.925356707738543,0.116194397776677,30.5070283809949,0.4289,0.8895,-0.1576
-0.932192816838253,0.0283324348858899,30.5070283809949,0.4289,0.8895,-0.1576
0.865726722833886,0.0912619178927923,30.5277031842842,0.4814,0.8762,0.0237
-0.869424040899894,0.0437416665374055,30.5277031842842,0.4814,0.8762,0.0237
0.990829545046686,0.166670996385057,30.5483779875736,0.9999,-0.0113,-0.0046
-1.00468513750025,-0.0114097703534851,30.5483779875736,0.9999,-0.0113,-0.0046
1.07885002333752,0.0584000679914518,30.5690527908629,0.3793,0.9205,-0.0943
-1.07489965747142,0.109172648427104,30.5690527908629,0.3793,0.9205,-0.0943
0.961639396758878,-0.038340982939435,30.5897275941522,0.9701,0.1884,-0.1532
-0.944136279856804,0.186620056343616,30.5897275941522,0.9701,0.1884,-0.1532
0.873618859400809,0.0699300739495458,30.6104023974416,0.9599,0.2498,-0.1269
-0.873921721404109,0.0660375014778602,30.6104023974416,0.9599,0.2498,-0.1269
0.715630264045354,0.379937030020116,30.6310772007309,0.6088,0.7859,-0.1082
-0.765784401452315,-0.264675408926577,30.6310772007309,0.6088,0.7859,-0.1082
0.787342581477988,0.371359665820009,30.6517520040203,0.8325,-0.3235,-0.4498
-0.835307008911935,-0.245109246804292,30.6517520040203,0.8325,-0.3235,-0.4498
0.892036223558,0.2802452123519,30.6724268073096,0.6779,0.5883,-0.441
-0.924647699210505,-0.13889793205984,30.6724268073096,0.6779,0.5883,-0.441
0.820323999906673,0.288822541837937,30.6931016105989,0.8665,0.391,-0.3104
-0.855125179034228,-0.158464045380301,30.6931016105989,0.8665,0.391,-0.3104
0.71381854467804,0.349810473135133,30.7137764138883,0.0571,0.7642,-0.6424
-0.759334693998524,-0.235191633208896,30.7137764138883,0.0571,0.7642,-0.6424
0.659831234414168,0.475146958500858,30.7344512171776,0.0107,0.9609,0.2768
-0.725383368443949,-0.367370193219388,30.7344512171776,0.0107,0.9609,0.2768
0.794094562562027,0.496711420551886,30.755126020467,-0.0895,0.3561,-0.9301
-0.861366374562411,-0.36790811131376,30.755126020467,-0.0895,0.3561,-0.9301
0.848081872825899,0.371374935186162,30.7758008237563,-0.1497,0.7242,-0.6732
-0.895317700116987,-0.235729551303268,30.7758008237563,-0.1497,0.7242,-0.6732
0.74918243190728,0.443110150030649,30.7964756270456,-0.1325,0.875,-0.4656
-0.808704019361758,-0.321898633744892,30.7964756270456,-0.1325,0.875,-0.4656
0.873026993217219,0.517937869132923,30.817150430335,-0.3732,0.0946,-0.9229
-0.942632076389378,-0.376670327647002,30.817150430335,-0.3732,0.0946,-0.9229
0.960669612617273,0.404949657526635,30.8378252336243,0.5801,0.8108,0.0785
-1.01174364434179,-0.251485840299529,30.8378252336243,0.5801,0.8108,0.0785
0.836825051307334,0.330121938424361,30.8585000369137,-0.3251,0.9421,0.0825
-0.877815587314166,-0.196714146397419,30.8585000369137,-0.3251,0.9421,0.0825
0.730529751759887,0.432883383147168,30.879174840203,-0.7332,0.6765,-0.0691
-0.788693999744313,-0.314680022210846,30.879174840203,-0.7332,0.6765,-0.0691
0.703025061458902,0.418879096901632,30.8998496434923,0.0391,0.9969,-0.0684
-0.75935421521837,-0.305098526201804,30.8998496434923,0.0391,0.9969,-0.0684
0.847480593239935,0.377443979077872,30.9205244467817,-0.8629,0.4397,0.2491
-0.895662379071328,-0.241818560033631,30.9205244467817,-0.8629,0.4397,0.2491
0.874985224473685,0.391448393818784,30.941199250071,-0.259,0.9554,0.1416
-0.925002125115751,-0.251400192127839,30.941199250071,-0.259,0.9554,0.1416
0.734943409547679,0.415436238321373,30.9618740533603,-0.3229,0.9463,0.0172
-0.790355924367975,-0.296760166067861,30.9618740533603,-0.3229,0.9463,0.0172
0.685451207940721,0.540756798155888,30.9825488566497,-0.5011,-0.02,-0.8652
-0.760843148198143,-0.428227716360279,30.9825488566497,-0.5011,-0.02,-0.8652
0.828258410184286,0.5752824505414,31.003223659939,-0.2386,0.9437,-0.2291
-0.907271965313052,-0.440249330378721,31.003223659939,-0.2386,0.9437,-0.2291
0.877750646505315,0.449961984488191,31.0238984632284,-0.4563,-0.0655,-0.8874
-0.936784790284708,-0.308781867369646,31.0238984632284,-0.4563,-0.0655,-0.8874
0.74398454431782,0.448239635375918,31.0445732665177,0.237,0.0444,-0.9705
-0.804362082652419,-0.327770366105286,31.0445732665177,0.237,0.0444,-0.9705
0.834037490641259,0.474889143856333,31.065248069807,-0.443,0.6316,-0.6363
-0.897453276882144,-0.340170325809397,31.065248069807,-0.443,0.6316,-0.6363
0.955658046338151,0.472680660016854,31.0859228730964,-0.9121,-0.3236,-0.2515
-1.01726860545026,-0.319176898052012,31.0859228730964,-0.9121,-0.3236,-0.2515
0.865605193796018,0.446031116822368,31.1065976763857,-0.6894,0.7244,-0.001
-0.924177498503878,-0.306776889546076,31.1065976763857,-0.6894,0.7244,-0.001
0.74144798868631,0.458465705069513,31.1272724796751,-0.915,0.3425,-0.2133
-0.803437758737277,-0.33826570988955,31.1272724796751,-0.915,0.3425,-0.2133
0.6553748078242,0.471552752900419,31.1479472829644,-0.0289,0.9473,-0.319
-0.720424642665309,-0.364508534521665,31.1479472829644,-0.0289,0.9473,-0.319
0.78058334234195,0.475388081803825,31.1686220862537,0.3975,0.6645,0.6328
-0.844719590715771,-0.348931219187723,31.1686220862537,0.3975,0.6645,0.6328
0.866656464136825,0.462301162468295,31.1892968895431,-0.4168,0.7597,-0.4992
-0.927732668306219,-0.322688530640775,31.1892968895431,-0.4168,0.7597,-0.4992
0.752405501895251,0.525094017166218,31.2099716928324,-0.1253,0.9802,-0.1532
-0.82456906339618,-0.402397348196961,31.2099716928324,-0.1253,0.9802,-0.1532
0.848783703769642,0.624153955106381,31.2306464961218,0.0362,0.987,-0.1566
-0.935109393599225,-0.48535796837215,31.2306464961218,0.0362,0.987,-0.1566
0.964114042472081,0.528670474906554,31.2513212994111,-0.3941,0.3691,-0.8417
-1.03428299982322,-0.373184986576986,31.2513212994111,-0.3941,0.3691,-0.8417
0.86773584059769,0.429610536966391,31.2719961027004,-0.1462,0.9852,-0.0893
-0.923742669620174,-0.290224366401797,31.2719961027004,-0.1462,0.9852,-0.0893
0.770675486373144,0.548470792065838,31.2926709059898,-0.4705,0.5457,-0.6934
-0.846234955462198,-0.42266690809632,31.2926709059898,-0.4705,0.5457,-0.6934
0.792410494730331,0.525236624196878,31.3133457092791,-0.3406,0.5877,-0.7339
-0.864114677076408,-0.396350512069349,31.3133457092791,-0.3406,0.5877,-0.7339
0.897984792465907,0.420607738080806,31.3340205125685,0.0432,0.9927,-0.113
-0.952235095287462,-0.276651188568509,31.3340205125685,0.0432,0.9927,-0.113
0.87624978410872,0.443841905949767,31.3546953158578,-0.9682,0.1797,0.1743
-0.934355373673251,-0.302967584595479,31.3546953158578,-0.9682,0.1797,0.1743
0.774384162028429,0.539632429037885,31.3753701191471,-0.4574,0.8784,0.1384
-0.848531935577951,-0.413361274400658,31.3753701191471,-0.4574,0.8784,0.1384
0.800268459153828,0.673157341864009,31.3960449224365,-0.7334,0.6638,-0.1466
-0.894757544987834,-0.541275668499153,31.3960449224365,-0.7334,0.6638,-0.1466
0.931793546214313,0.619946192295691,31.4167197257258,-0.9392,-0.0931,-0.3305
-1.01646943009916,-0.468361390149174,31.4167197257258,-0.9392,-0.0931,-0.3305
0.905909155307608,0.486421314183637,31.4373945290152,-0.4589,0.8859,0.0679
-0.970243733405931,-0.340447044852503,31.4373945290152,-0.4589,0.8859,0.0679
0.839408284284972,0.596723317347545,31.4580693323045,-0.7986,0.0681,0.598
-0.921603998981709,-0.459707574718344,31.4580693323045,-0.7986,0.0681,0.598
0.968633231321875,0.597859003466063,31.4787441355938,-0.5668,0.4893,0.6628
-1.04944946018051,-0.440841871166218,31.4787441355938,-0.5668,0.4893,0.6628
1.00788288282299,0.464508278235411,31.4994189388832,-0.3904,0.8345,0.3889
-1.06760089261648,-0.303025048669753,31.4994189388832,-0.3904,0.8345,0.3889
0.878658029567395,0.463372557402823,31.5200937421725,-0.6865,-0.0867,0.722
-0.939755518701025,-0.321890703420055,31.5200937421725,-0.6865,-0.0867,0.722
0.820863801300689,0.592713824050927,31.5407685454618,-0.1517,0.9873,-0.0479
-0.902662524189406,-0.458614680239196,31.5407685454618,-0.1517,0.9873,-0.0479
0.797323744314727,0.635849725712392,31.5614433487512,-0.1665,0.7196,-0.6741
-0.886077754790996,-0.504872498162781,31.5614433487512,-0.1665,0.7196,-0.6741
0.913661183834782,0.549029799766055,31.5821181520405,0.0031,0.357,-0.9341
-0.987586367405883,-0.401103037624476,31.5821181520405,0.0031,0.357,-0.9341
0.937201240820745,0.50589389810459,31.6027929553299,0.0515,0.9643,-0.2597
-1.00417113680429,-0.354845219700891,31.6027929553299,0.0515,0.9643,-0.2597
0.857027668927786,0.425020861298342,31.6234677586192,0.0613,-0.1262,-0.9901
-0.912453461658719,-0.287346199128508,31.6234677586192,0.0613,-0.1262,-0.9901
0.967442927852113,0.460218035487812,31.6441425619085,0.1504,0.5638,-0.8121
-1.02698402045803,-0.305041440730907,31.6441425619085,0.1504,0.5638,-0.8121
1.00839299328689,0.313976486473389,31.6648173651979,0.2152,0.6341,-0.7427
-1.04482152976714,-0.15422591839021,31.6648173651979,0.2152,0.6341,-0.7427
0.897977734362559,0.278779312283919,31.6854921684872,0.1787,-0.1776,-0.9677
-0.930290970967833,-0.136530676787811,31.6854921684872,0.1787,-0.1776,-0.9677
0.945391230889167,0.425836387519391,30.440781856,-0.015,0.8409,-0.5409
-0.999879760328926,-0.27448437708232,30.440781856,-0.015,0.8409,-0.5409
1.06220198202486,0.359880848229616,30.4614566592893,0.0089,0.1227,-0.9924
-1.10508316391014,-0.191255003548582,30.4614566592893,0.0089,0.1227,-0.9924
1.00098439941205,0.223216526678071,30.4821314625787,0.1388,0.258,-0.9561
-1.02346389998826,-0.0657041175980988,30.4821314625787,0.1388,0.258,-0.9561
0.884173519780984,0.289172006900611,30.502806265868,0.5763,0.8132,0.0815
-0.918260360321884,-0.148933452650318,30.502806265868,0.5763,0.8132,0.0815
0.894758209607497,0.410936064523566,30.5234810691574,-0.683,0.6969,-0.2189
-0.947551387314779,-0.267594976006592,30.5234810691574,-0.683,0.6969,-0.2189
0.984660055014151,0.529217857771759,30.5441558724467,0.1457,0.9678,0.2053
-1.05466641892292,-0.370547850784895,30.5441558724467,0.1457,0.9678,0.2053
1.10075581018027,0.434269657804262,30.564830675736,-0.2759,0.9437,-0.1827
-1.15467902413406,-0.258785317512156,30.564830675736,-0.2759,0.9437,-0.1827
1.01085405855493,0.315987829841999,30.5855054790254,-0.6394,0.4846,-0.5969
-1.04756407980927,-0.155832393932029,30.5855054790254,-0.6394,0.4846,-0.5969
1.015215566157,0.442703535127244,30.6061802823147,0.037,0.9989,0.0279
-1.07147270743803,-0.28034853842506,30.6061802823147,0.037,0.9989,0.0279
1.15930330989865,0.399427617811936,30.626855085604,-0.7993,0.4477,-0.4008
-1.20713278578908,-0.215306812911167,30.626855085604,-0.7993,0.4477,-0.4008
1.11425268540578,0.254628509582906,30.6475298888934,-0.4693,0.8447,-0.2574
-1.14022768116597,-0.079218431752118,30.6475298888934,-0.4693,0.8447,-0.2574
0.970164941664131,0.297904426898214,30.6682046921827,-0.183,0.9598,-0.2126
-1.00456760281492,-0.144260157266011,30.6682046921827,-0.183,0.9598,-0.2126
1.01241811255626,0.451723253848008,30.6888794954721,-0.8185,0.3015,-0.489
-1.07010403433774,-0.289692403064199,30.6888794954721,-0.8185,0.3015,-0.489
1.05388340610037,0.460774320947569,30.7095542987614,-0.1503,0.9886,0.0085
-1.11247028083381,-0.292220948530324,30.7095542987614,-0.1503,0.9886,0.0085
1.08630385638565,0.31227206187398,30.7302291020507,-0.9311,0.2181,-0.2923
-1.12153115116417,-0.140491231020811,30.7302291020507,-0.9311,0.2181,-0.2923
1.04483837527893,0.303221064202559,30.7509039053401,-0.8736,0.067,-0.482
-1.07916473010141,-0.137962783158334,30.7509039053401,-0.8736,0.067,-0.482
1.01184501362465,0.443071258700957,30.7715787086294,-0.413,0.849,-0.3297
-1.0681995947652,-0.281233173056417,30.7715787086294,-0.413,0.849,-0.3297
1.12795894810322,0.538340594643251,30.7922535119188,-0.6953,-0.4039,-0.5945
-1.19765184247966,-0.357396206823815,30.7922535119188,-0.6953,-0.4039,-0.5945
1.21868878833507,0.420274718614635,30.8129283152081,-0.1096,0.445,-0.8888
-1.26902809636864,-0.226717649394998,30.8129283152081,-0.1096,0.445,-0.8888
1.10257472536112,0.325005323605105,30.8336031184974,0.3697,0.3876,-0.8444
-1.13957571256901,-0.150554577146081,30.8336031184974,0.3697,0.3876,-0.8444
1.10176541599899,0.454369638869696,30.8542779217868,0.0916,-0.3626,-0.9274
-1.15878542174658,-0.278487247402091,30.8542779217868,0.0916,-0.3626,-0.9274
1.19489589572075,0.376539756532294,30.8749527250761,-0.3953,0.8012,-0.4493
-1.23875688159234,-0.18718915077353,30.8749527250761,-0.3953,0.8012,-0.4493
1.15765626408323,0.247755339418414,30.8956275283655,-0.8164,0.0119,-0.5774
-1.18204582329876,-0.0657145767957563,30.8956275283655,-0.8164,0.0119,-0.5774
1.06452559679886,0.325585291183956,30.9163023316548,-0.7477,0.3538,-0.5619
-1.10207418888631,-0.157012771027965,30.9163023316548,-0.7477,0.3538,-0.5619
1.08144230148708,0.456999459598558,30.9369771349441,-0.4452,0.7885,-0.4243
-1.13911364859748,-0.284228874497278,30.9369771349441,-0.4452,0.7885,-0.4243
1.10733228764107,0.536957433456369,30.9576519382335,-0.7716,-0.2099,-0.6005
-1.17705947294503,-0.359220096524159,30.9576519382335,-0.7716,-0.2099,-0.6005
1.16673825220361,0.413488446661328,30.9783267415228,-0.0474,0.9638,0.2624
-1.21665309568363,-0.228048436611535,30.9783267415228,-0.0474,0.9638,0.2624
1.14084820698239,0.333530601298893,30.9990015448122,-0.1332,0.9431,-0.3046
-1.17870723285456,-0.153057350669821,30.9990015448122,-0.1332,0.9431,-0.3046
1.13570615245895,0.474740531302162,31.0196763481015,-0.1431,0.63,-0.7633
-1.19546854597557,-0.293363243057523,31.0196763481015,-0.1431,0.63,-0.7633
1.28144241377815,0.475051267063759,31.0403511513908,0.0636,0.9938,0.0912
-1.33949901916547,-0.271128648104929,31.0403511513908,0.0636,0.9938,0.0912
1.28465935593393,0.323399474421481,31.0610259546802,-0.3314,0.2144,-0.9188
-1.31922067800084,-0.120804319375142,31.0610259546802,-0.3314,0.2144,-0.9188
1.13892312932881,0.32308883244119,31.0817007579695,-0.1725,0.7176,-0.6747
-1.17519025361277,-0.14303900161108,31.0817007579695,-0.1725,0.7176,-0.6747
1.15981972266734,0.472736505390335,31.1023755612589,-0.0284,0.8135,-0.5809
-1.21898195300422,-0.287653595261441,31.1023755612589,-0.0284,0.8135,-0.5809
1.16297726815768,0.42406773060715,31.1230503645482,-0.2485,0.063,-0.9666
-1.21457371164977,-0.239082130999171,31.1230503645482,-0.2485,0.063,-0.9666
1.15872210725678,0.280101767273425,31.1437251678375,-0.184,0.9507,-0.2497
-1.18810198677192,-0.0975068761878474,31.1437251678375,-0.184,0.9507,-0.2497
1.15556469026181,0.328770601123845,31.1643999711269,-0.4354,0.4209,-0.7958
-1.19251036421153,-0.146078378931636,31.1643999711269,-0.4354,0.4209,-0.7958
1.14727858355045,0.462755987329088,31.1850747744162,-0.3152,0.4464,-0.8375
-1.20504801384632,-0.279732973400496,31.1850747744162,-0.3152,0.4464,-0.8375
1.22569557971276,0.554012307709547,31.2057495777055,-0.0678,0.9327,-0.3542
-1.29663627525378,-0.357762017152549,31.2057495777055,-0.0678,0.9327,-0.3542
1.28491420312528,0.43245525178499,31.2264243809949,-0.9401,0.3157,0.1285
-1.3363405371261,-0.228508255918711,31.2264243809949,-0.9401,0.3157,0.1285
1.20649711318167,0.341198966118601,31.2470991842842,-0.1314,0.9825,0.1317
-1.2447521884353,-0.150479260968482,31.2470991842842,-0.1314,0.9825,0.1317
1.21969405851944,0.471215606402996,31.2677739875736,-0.4702,0.8824,-0.019
-1.27790049284738,-0.276890004308176,31.2677739875736,-0.4702,0.8824,-0.019
1.3303893672589,0.404194096631308,31.2884487908629,-0.9596,0.2702,-0.0784
-1.3768971720345,-0.193553387752647,31.2884487908629,-0.9596,0.2702,-0.0784
1.29002458809447,0.269327407531972,31.3091235941522,-0.113,0.9933,0.022
-1.31615780700828,-0.0665531170371022,31.3091235941522,-0.113,0.9933,0.022
1.17932918557371,0.33634895201773,31.3297983974416,-0.9733,0.1985,0.1156
-1.21716104053782,-0.149889782394455,31.3297983974416,-0.9733,0.1985,0.1156
0.966302560713983,0.451301618647496,31.3504732007309,-0.8311,0.5551,0.0341
-1.02447824029472,-0.296408712758062,31.3504732007309,-0.8311,0.5551,0.0341
0.93554947576617,0.494023936373628,31.3711480040203,-0.5422,0.8391,-0.0441
-1.0007032768885,-0.343373590919656,31.3711480040203,-0.5422,0.8391,-0.0441
0.912406179546121,0.34881715062888,31.3918228073096,-0.9699,-0.158,0.1854
-0.95537880157277,-0.203493947212634,31.3918228073096,-0.9699,-0.158,0.1854
0.94315932356117,0.306094704407372,31.4124976105989,-0.5378,0.8027,0.2578
-0.979153803460501,-0.156528932965874,31.4124976105989,-0.5378,0.8027,0.2578
0.967836809907581,0.450241065767181,30.983015856,-0.8937,0.3288,0.3052
-1.02582998587907,-0.295123614755898,30.983015856,-0.8937,0.3288,0.3052
1.10826629974476,0.466170368825675,31.0036906592893,-0.9759,0.1561,0.1522
-1.1670333356944,-0.289140445629826,31.0036906592893,-0.9759,0.1561,0.1522
1.11355028257801,0.317092165905503,31.0243654625787,0.139,0.9903,0.008
-1.1491952266553,-0.141039017796064,31.0243654625787,0.139,0.9903,0.008
0.973120570464144,0.301162838493844,31.045040265868,-0.8553,0.2711,-0.4416
-1.00799165347146,-0.14702219724244,31.045040265868,-0.8553,0.2711,-0.4416
0.997330504921515,0.432934458855512,31.0657150691574,-0.4387,0.8741,-0.2083
-1.05229186166407,-0.273463378877465,31.0657150691574,-0.4387,0.8741,-0.2083
0.992001692333131,0.340015564809103,31.0863898724467,-0.4043,0.806,-0.4323
-1.03265505350738,-0.182486937532317,31.0863898724467,-0.4043,0.806,-0.4323
0.967322064382848,0.221895225591441,31.107064675736,-0.6084,-0.1165,-0.785
-0.990002300761369,-0.0696054011508177,31.107064675736,-0.6084,-0.1165,-0.785
0.972650783189925,0.31481415435192,31.1277394790254,-0.3433,0.8829,-0.3203
-1.00963902163472,-0.16058189129779,31.1277394790254,-0.3433,0.8829,-0.3203
0.972231737242282,0.428553952368375,31.1484142823147,-0.7828,0.1122,-0.612
-1.02681759312194,-0.273017712698215,31.1484142823147,-0.7828,0.1122,-0.612
0.937966507721252,0.518696710559319,31.169089085604,-0.7517,0.4029,-0.5222
-1.00690745468316,-0.367375590990114,31.169089085604,-0.7517,0.4029,-0.5222
0.986329021926761,0.411525461308543,31.1897638888934,-0.3484,0.8996,-0.2635
-1.03811136264259,-0.254013668042813,31.1897638888934,-0.3484,0.8996,-0.2635
1.02059415766648,0.321382737831669,31.2104386921827,-0.9502,0.012,-0.3114
-1.05802141379802,-0.159655838552738,31.2104386921827,-0.9502,0.012,-0.3114
0.935167696091296,0.408279055805924,31.2311134954721,-0.5085,0.8575,-0.0782
-0.987063599403147,-0.258719651274856,31.2311134954721,-0.5085,0.8575,-0.0782
1.00901715461006,0.494374942842679,31.2517882987614,-0.736,0.6018,-0.31
-1.07334110663243,-0.332356843198917,31.2517882987614,-0.736,0.6018,-0.31
1.14129284647492,0.43593400314591,31.2724631020507,-0.1402,0.989,-0.046
-1.19498565159147,-0.254159613243642,31.2724631020507,-0.1402,0.989,-0.046
1.06744338795616,0.349838116109155,31.2931379053401,-0.0196,0.6457,-0.7633
-1.10870814436219,-0.180522421319581,31.2931379053401,-0.0196,0.6457,-0.7633
0.928609672553362,0.363372192217427,31.3138127086294,0.0604,0.7166,0.6948
-0.973638579576333,-0.215367570439795,31.3138127086294,0.0604,0.7166,0.6948
0.967480369053533,0.30283347365681,31.3344875119188,0.0454,0.9704,0.2372
-1.0026777321944,-0.149545119052788,31.3344875119188,0.0454,0.9704,0.2372
1.11148988061249,0.346076459868104,31.3551623152081,-0.0578,0.9853,0.161
-1.1516427332721,-0.16999319304128,31.3551623152081,-0.0578,0.9853,0.161
1.07261918411232,0.406615178428721,31.3758371184974,0.126,0.4971,0.8585
-1.12260358065404,-0.235815644428287,31.3758371184974,0.126,0.4971,0.8585
0.935404078707605,0.372509071898761,31.3965119217868,0.109,0.9922,-0.0604
-0.981764455537038,-0.223343576029766,31.3965119217868,0.109,0.9922,-0.0604
0.853008855337603,0.450252429084101,31.4171867250761,0.6187,0.485,0.618
-0.912385676319644,-0.312895725166143,31.4171867250761,0.6187,0.485,0.618
0.980330977464272,0.490610268937733,31.4378615283655,0.3055,0.1736,0.9362
-1.04441785420982,-0.333074476913153,31.4378615283655,0.3055,0.1736,0.9362
1.06272620083427,0.412866911752394,31.4585363316548,0.0753,0.8417,0.5346
-1.11379663342721,-0.243522327776775,31.4585363316548,0.0753,0.8417,0.5346
0.956813575138371,0.444752992740802,31.4792111349441,0.5707,-0.1534,0.8067
-1.01409054782472,-0.29140659384016,31.4792111349441,0.5707,-0.1534,0.8067
1.06011687375391,0.437058943858806,31.4998859382335,0.49,0.6855,0.5384
-1.11496058324655,-0.267826817610303,31.4998859382335,0.49,0.6855,0.5384
1.14925612220985,0.35166403444923,31.5205607415228,0.4181,0.5814,0.698
-1.18981873196898,-0.169672073770743,31.5205607415228,0.4181,0.5814,0.698
